-10.000000      -10.000000      -10.000000      -10.000000      -10.000000      -10.000000      -10.000000      -10.000000      -10.000000      -10.000000      -10.000000      -10.000000       50.701383      131.053797       77.468986       65.505439      102.487657       93.010369      148.717976      199.314394      356.846829      938.663701     1779.665908     2174.314422     2403.695596     2677.171535     3063.040899     3365.962877     3335.580320     1232.799537      949.040114     1031.634196     1093.537323     1544.210103     1351.860427     1181.033209     1390.248998     1517.673410     1735.706133     1919.265701     2037.846248     2038.871607     1672.936461     2088.022031     1958.406018     1381.130623     1179.243904      965.790693     2004.466948     2782.551719     2668.367914     1632.174064      627.161143      605.767364      673.665783      804.050122      976.883953     1374.132940     2156.652635     2531.910220     2692.018116     2800.049876     3300.767652     3308.896645     3282.248457     3241.098897     3224.488864     3232.407336     3276.151878     3249.429417     3202.326495     3215.116692     3231.584235     3268.098508     3256.320222     3193.440048     3245.368817     3231.724551     3344.968582     3093.640387     3153.134798     3002.346456     2108.888502     2567.891576     2456.200800     2374.648985     2350.060284     2142.136578     2218.158749     2011.505278     2261.327448     2332.090503     2603.657911     2588.388675     2766.492884     2785.831743     2826.860472     2651.073979     2857.029567     3212.502344     3518.847515     3812.104874     3821.082905     3666.390915     2802.362812     1410.015038     1334.932069     1262.125493     1150.852250     1553.249631     1790.310557     2232.262000     2345.787405     3213.053429     3854.448117     4174.589319     4241.780361     4251.780679     4254.320566     4272.590812     4262.379047     4271.602264     4301.046145     4298.207606     4245.725515     4214.872108     4089.960334     4185.036194     3908.886563     3811.062235     3768.719779     3699.754126     3843.922617     3689.783625     3740.696095     3689.497131     3918.803997     3755.860726     3774.410767     3720.779220     3701.388354     3658.997345     3595.427040     3545.521674     3543.187925     3576.648356     3569.698122     3428.000075     3399.489449     3404.373032     3233.837944     1930.505238      775.496918      316.311797      291.669649      246.495183      213.364972      193.253517      179.915741      274.176078      437.392683      428.862237      307.479394      343.033394      267.229082       69.048896      -10.000000      120.805439      110.470511      108.943222      131.010845      256.706922      289.187146      275.258342      225.303064      218.737213      229.855320      244.766722      249.866112      230.875127      245.614804      287.011250      255.508774      284.825133      249.432452      239.215948
-10.000000      -10.000000      -10.000000      -10.000000      -10.000000      -10.000000      -10.000000      -10.000000      -10.000000      -10.000000      -10.000000       32.347691       66.438781      106.542836       66.746230       61.533936       68.352441       66.501197       70.609618       79.406419      165.636720      313.395015      909.798249     1546.517861     1716.623173     2423.800483     2915.110378     3138.264733     2077.210835      881.235120      633.507566     1220.870291     1639.344686     1670.999277     1972.046445     1906.402489     1727.659253     1999.383141     2067.634307     2034.603583     1837.680106     2066.651979     1683.568149     1032.953397      707.617043      557.432133     1311.946203     2612.632962     2144.830256     1275.506124      530.834396      395.923742      420.721484      539.102596      626.507890      764.462534     1117.388947     1828.614923     2344.422745     2532.131597     2614.377482     2780.398503     3206.381746     3300.818226     3211.100993     3289.853823     3225.545347     3243.847729     3285.813142     3248.174005     3203.743302     3199.833559     3089.616292     3159.357438     3197.310222     3172.424176     3152.015199     3223.730571     3157.297649     2601.607306     2903.356746     2746.402594     2712.233954     2692.434398     2369.319482     2247.277067     2526.781822     2601.430284     2147.120332     2027.152302     2242.087887     2632.941624     2819.224405     2962.865145     2979.889913     2961.122997     3038.378674     3044.727801     3109.743870     3373.867059     3614.908438     3857.283837     3091.518485     1678.384522     1029.811805     1513.665342     1352.692455     1163.419815     1228.228339     1045.871046     1587.945101     2507.693956     3050.637422     3766.433772     4103.703156     4209.028072     4227.423119     4238.701588     4248.074595     4257.084857     4258.828656     4268.285704     4293.920213     4303.514372     4288.204601     4275.475370     4257.112019     4301.245216     3783.663398     3782.915517     3574.787049     3877.128574     3695.688517     3653.432948     3782.843351     3707.501576     3679.846885     3712.370942     3529.722686     3725.145880     3691.909749     3633.530897     3552.575370     3464.354608     3446.127310     3433.156660     3402.875738     3378.337072     3349.076680     3323.266268     2925.689824     1274.211795      370.816982      291.610832      254.538635      227.765501      202.589453      192.318650      191.049139      164.277597      361.441794      193.796984      376.363219      193.104126      338.831442       65.887327      327.600080      290.220790      162.457893      103.975418       70.923144      187.906453      270.944280      336.006751      328.479848      305.638545      324.454477      305.681564      262.396019      265.485136      308.982935      278.452859      219.323082      238.791897      268.420723      233.855834
-10.000000      -10.000000      -10.000000      -10.000000      -10.000000      -10.000000      -10.000000      -10.000000      -10.000000      -10.000000       12.827836       35.575445       72.837511       86.606485       60.410104       56.177631       58.881194       58.436499       55.003808       55.334981      101.552349      178.332224      211.363902      785.874866     1199.928779     1899.543738     2550.413320     2728.909571     1248.184312      796.408567      561.307864      840.831818     1353.449062     1611.263310     2023.230190     2029.452936     2077.945966     2178.484837     2029.745718     2091.833431     2028.464951     1248.173939     1924.153954     1696.359814     1240.098099     1683.824854     2511.179678     1440.062676      495.728767      317.618590      272.622821      282.192233      382.125108      542.105030      626.223290      714.612131      862.570280     1563.809518     2091.588269     2422.158521     2591.738960     2932.564090     3198.828843     3235.510623     3262.419517     3222.855287     3223.500754     3235.502918     3243.463279     3220.961165     3217.209494     3211.397210     3132.059906     2963.986717     3086.561783     3083.854523     3111.264324     3187.605527     3184.404065     2548.611637     2596.664961     2496.336931     2481.469306     2747.422653     2413.557887     2393.281787     2590.036504     2675.599122     2350.480819     2601.598168     2784.897402     2974.182188     3020.591796     3188.515138     3196.828473     3203.684929     3197.852157     3385.424280     3465.544976     3646.199041     3781.515542     3219.382072     1114.331515      959.044914     1324.169793     1523.945688     1093.892607      906.352725      884.671606      970.876609     2052.324175     3184.117817     3737.810960     4093.444844     4202.002260     4211.146377     4229.166622     4239.811606     4246.092803     4251.741867     4257.874390     4271.420421     4292.573753     4301.133111     4279.982138     4263.657135     4245.091494     3766.207753     3616.119723     3890.816213     3782.885537     3994.404201     3793.169901     3804.165640     3769.845191     3707.806048     3664.669210     3680.554403     3695.125001     3693.148604     3647.142878     3607.834994     3540.197537     3406.654121     3389.095127     3369.035975     3316.992799     3245.961290     3136.925426     3059.486284     2514.229333     1059.905170      347.847957      237.655234      199.293654      202.849679      203.373999      232.205277      171.475449      112.381070      327.153140       39.240525      322.210322      266.081502      243.060802      313.241208      155.596989      305.159205      199.064686        5.000000       41.321151      138.565025      360.831371      391.266010      348.370337      368.487867      303.678969      264.935051      249.232562      252.914729      325.123697      325.080752      238.863769      233.757530      266.979760      238.890635
-10.000000      -10.000000      -10.000000      -10.000000      -10.000000      -10.000000      -10.000000      -10.000000      -10.000000      -10.000000       10.149193       29.976829       92.849765       68.909054       55.463174       53.297841       54.684029       50.241259       49.787805       50.498105       65.297792       98.968968      163.006170      259.787227      753.858234     1545.054827     1906.531936     2071.237719     1476.357871      543.835802     1180.078414     1560.879041     1737.371730     1800.541497     1801.734645     2033.210475     1972.524204     1145.057347      932.024346     1758.856070     1962.427084     1922.225302     1926.940110     1351.548541      923.294919     1315.748552      989.442783      437.049930      296.021689      259.740068      278.573947      339.782208      441.381727      568.843036      577.617304      595.497567      899.956980     1712.408136     2338.541183     2592.955302     2772.315893     3102.124660     3171.144091     3239.823702     3235.542541     3280.477027     3240.742824     3234.744304     3233.713529     3233.875804     3186.087442     3234.667099     3105.791644     2858.983033     2912.180401     3028.411180     3021.891404     2997.122797     2697.223113     2359.139935     2437.378355     2414.756337     2204.579935     2721.185013     2477.088027     2318.144746     2438.316973     2620.465070     2578.185539     2802.264813     2817.493165     3051.588294     3171.462926     3011.967622     3242.866563     3283.585745     3357.385831     3424.800285     3595.138043     3760.283628     3742.909056     2974.646485     1092.109329     1858.235991     1414.276648     1026.432879      784.391094      817.432790      843.437253     1890.784014     2956.059638     3695.754770     3979.111058     4143.055241     4204.303449     4217.515525     4237.035304     4241.868815     4247.411783     4250.275702     4258.457365     4270.829494     4271.622554     4176.853479     4249.333190     4236.317857     4199.167044     3833.808432     3786.891410     3775.780553     3822.333738     3803.304050     3706.430032     3748.662434     3723.649046     3686.054134     3653.592850     3635.069078     3646.267294     3641.532055     3605.020746     3544.693342     3433.509119     3407.406443     3286.180760     3296.679933     3177.294949     3056.995873     3029.432957     2884.699073     2407.245582     1184.215010      459.375946      245.030699      251.397221      335.441830      258.316483      272.866937      293.314577      249.960908      268.536560      148.496612        5.000000      118.382468      154.171727      232.801834       83.853771        5.000000      127.029512      210.730866      217.403053      374.888288      305.066075      314.433581      307.929216      323.627983      295.065080      250.779895      239.776225      244.864653      277.119636      337.083708      299.203681      241.997287      256.193323      259.000350
-10.000000      -10.000000      -10.000000      -10.000000      -10.000000      -10.000000      -10.000000      -10.000000      -10.000000      -10.000000        5.740070       40.269132       92.367712       54.127689       49.911206       52.527361       48.518383       42.318306       47.367668       47.516532       49.906152       58.825761       80.200507      169.610572      362.535702      766.191021     1008.153134     1164.449543      749.423702      668.656496     1371.629582     1625.910908     1748.929688     1857.472141     1873.820604     1964.084488     1999.279217     2035.819403     1979.389293     2003.594538     2049.284467     1782.804189      828.968297      771.725680      581.545498      661.837011      414.302166      360.704726      334.004774      330.838892      444.175700      403.072928      400.860687      406.570676      427.433105      568.002092      865.304870     2133.340616     2604.052824     2783.009770     2883.101778     3114.515808     3172.313965     3208.021589     3294.841316     3227.831214     3244.086731     3140.030586     3136.900636     2659.146147     3186.197803     3145.445060     2780.734931     2795.144313     2621.241989     2783.201079     2797.256584     2536.158364     2667.141203     2379.153861     2420.372067     2448.410840     2597.163440     2661.311007     2588.919811     2561.272457     2435.794407     2641.874047     2978.413861     2793.408368     2782.220652     3175.310886     2871.178382     3130.272168     3268.470507     3323.556939     3394.144278     3419.759567     3595.364100     3547.853916     3310.362500     2468.224208     2338.686264     1868.540156      973.254053      708.009898      800.481408     1021.370701     1897.692817     2980.843573     3298.864920     3728.116676     4052.362523     4199.553653     4199.403054     4221.664372     4240.721126     4245.436453     4251.230045     4248.940393     4256.393304     4271.492534     4259.686383     4241.588904     4180.335279     4260.496017     3989.397367     3777.948249     3713.358550     3898.663461     4078.745409     3583.597024     3674.203807     3672.549479     3676.144590     3658.745337     3633.550119     3610.486018     3598.617150     3566.680328     3495.667346     3448.886504     3397.386685     3349.947796     3235.298388     3126.355050     3037.213636     2909.692088     2818.678134     2682.962721     2184.563050     1325.567709      556.002173      334.404647      282.891795      242.396916      121.799304        5.000000      295.028409      -10.000000      -10.000000       62.921275        8.775302       27.624807      200.209901       69.484648       91.154509      175.102422      176.558250      405.192873      365.585429      295.814939      269.861221      295.816725      313.334494      310.761584      297.752171      249.042161      243.069087      234.922854      229.807324      262.619459      337.089901      358.824640      295.300942      250.614940
-10.000000      -10.000000      -10.000000      -10.000000      -10.000000      -10.000000      -10.000000      -10.000000      -10.000000      -10.000000        5.000000       58.229534       66.294015       50.901465       50.374586       51.061606       45.214946       39.869372       44.369930       45.232950       44.082070       51.757287       58.266964      111.768286      265.101605      250.061489      259.165402      334.753032      323.438610      533.085817     1174.427385     1440.409160     1512.812600     1763.664780     1791.965710     1814.149020     1679.111291     1862.213438     2010.570256     1875.608959     1398.904912      790.033346      820.253121      586.628096      586.277114      680.978858      741.959438      605.174298      787.707324      591.637935      585.398892      461.752237      344.103445      314.780390      395.185612      544.146960     1364.541086     2471.359350     2633.223245     2980.635371     3021.358612     2890.960035     3120.874196     3208.842838     3308.372567     3301.337770     3247.681382     3247.557003     3265.424968     3206.945753     3202.281075     3215.591984     3162.026068     2903.357416     2560.946553     2496.014074     2419.585009     2383.632942     2393.467957     2010.960731     2294.171311     2262.556948     2617.343171     2628.269762     2644.347025     2474.865494     2685.562284     2750.632177     3026.740269     3082.298944     3207.112226     3205.116585     3192.240259     3197.227136     3250.845388     3277.287987     3377.301658     3365.305529     3424.600238     3421.637409     2917.368767     2418.791259     2238.682066     1193.571823      690.999325      707.540159     1041.962661     1961.891385     2872.105165     3359.238613     3668.597229     3983.832031     4185.377698     4185.561176     4207.455224     4227.869488     4240.584175     4245.983660     4254.722128     4255.404899     4270.806822     4264.810069     4237.774683     4243.181829     4206.427868     4186.638866     3913.132794     3719.612780     2879.867560     3829.974468     4074.617357     3674.467515     3495.077405     3628.018143     3644.407719     3631.720383     3622.416092     3592.571190     3562.412123     3514.317332     3459.785705     3409.846468     3354.757710     3257.357488     3131.891545     2925.886412     2846.755354     2700.422601     2533.769509     2356.967999     2041.378966     1773.122964      983.512612      309.508076      238.000614      212.746186      233.148887      197.082910      100.771465       23.381594      -10.000000      -10.000000      -10.000000      -10.000000       87.632185      281.192594      -10.000000      221.786169      357.468306      338.138934      302.743533      237.516601      229.426022      240.393276      295.726994      284.999362      250.526890      226.416174      267.988578      247.570846      199.341096      219.760986      333.002334      333.453906      311.297461      308.724955
-10.000000      -10.000000      -10.000000      -10.000000      -10.000000      -10.000000      -10.000000      -10.000000      -10.000000      -10.000000       27.879621       53.389830       62.077510       51.312101       50.099423       49.688939       45.925385       39.446529       35.025197       40.325933       45.768109       47.807366       52.089932       77.935625      200.273297      192.542366      184.252744      204.983118      254.248738      374.447785      795.803637     1077.746414     1242.379923     1429.463928     1523.974376     1346.876166     1590.828121     1624.814592     1642.013233      786.243163      573.148887      447.530442      569.721638      566.074109      924.066761     1136.923763      979.287617      639.497514      677.740063      637.571496      525.703806      404.248637      347.061935      371.572825      333.291006      684.870563     2091.687326     2438.634489     2641.805936     2966.127156     2990.986166     2963.282966     2800.798779     2979.639742     2884.994369     2928.783348     3065.101488     3227.661761     3246.582562     3226.172099     3203.807040     3099.964197     3161.019082     2706.537603     2381.930606     2441.825165     2229.252763     2028.534154     1728.144465     2113.603739     2225.378367     2305.630474     2414.303254     2527.403888     2189.957639     2318.513962     2938.567305     2978.369274     3107.713227     3194.909966     3157.291155     3186.939728     3342.410422     3339.597636     3224.767399     3293.448814     3025.940012     3372.107390     3410.149634     3138.694178     2265.161873     2413.751891     1538.080208      657.793629      786.797499     1207.661609     1891.539462     2669.773434     3064.207447     3586.643886     3791.965655     4146.260503     4187.558575     4192.242714     4214.143996     4231.421442     4241.697587     4250.696920     4253.974458     4256.612641     4245.972534     4262.297509     4240.337015     4301.939464     4156.205754     3968.317876     3943.280651     3857.411113     3548.951180     3841.662050     3279.240195     3567.055877     3498.103937     3610.788470     3623.953517     3615.792222     3607.521345     3571.928188     3522.348443     3440.401096     3380.201034     3399.479262     3305.984218     3209.796938     3004.309554     2787.479245     2509.420971     2388.842548     2190.926989     2030.709500     1425.100992     1284.909714     1022.341373      355.589784      243.382632      218.945435      224.317918      265.486125      136.842184       78.484343       58.141670      -10.000000      -10.000000      -10.000000      -10.000000      -10.000000      -10.000000      185.220932      270.373386      234.668625      246.485177      217.464077      206.265764      207.919450      258.201783      259.813687      239.058739      238.070997      226.065090      230.390269      217.414968      245.853407      303.705706      342.201478      298.566487      311.200600
-10.000000      -10.000000      -10.000000      -10.000000      -10.000000      -10.000000      -10.000000      -10.000000      -10.000000       14.924327       41.693466       50.216030       50.142831       49.952353       48.560446       49.135247       44.279563       39.158603       31.738766       36.048024       43.819112       50.241202       59.455577       86.030928      130.561688      138.945866      113.935671      152.326837      206.367269      272.058535      353.618619      644.624544      802.412309      943.358802     1091.662685      595.699401      606.585648      579.499827      645.251685      525.019653      583.737810      493.824402      593.474833      871.398252      864.968132      668.708801      601.362523      627.823278      590.855971      556.196173      481.422636      464.719603      462.679541      484.468446      544.489149     1445.589949     2258.892693     2321.652461     2572.549454     2705.246973     2455.428517     2756.891070     2554.129122     2461.040890     2465.565294     2481.691597     2585.539369     2653.496030     2782.143428     2637.647129     2784.624648     2815.750534     2498.753192     2134.539618     2203.228509     2234.817081     2140.887636     2249.703159     2009.412428     1939.397003     2240.249172     2395.854734     2405.175872     2573.406435     2494.793591     2567.238830     2976.147800     3036.633506     3183.929912     3188.038399     3055.474127     3166.377692     3336.824280     3293.041919     3381.106518     3222.599895     3296.734750     3436.912756     3248.533320     2621.832514     2354.377567     2159.157341      853.100464      843.077849     1411.459604     2047.218225     2103.276091     2710.407901     3478.985678     3745.831052     3919.511758     4162.876084     4180.373709     4201.521540     4221.884248     4232.193612     4242.584709     4248.268651     4255.415088     4251.756495     4158.595879     4223.551189     4299.630709     4093.518809     4040.419776     3851.176233     3542.450849     3774.458873     3872.370643     3810.902948     3511.428600     3480.248881     3535.662490     3558.893754     3584.953648     3597.826820     3596.518255     3502.604651     3234.587508     2917.504254     3287.470068     3346.628952     3229.921568     3037.239578     2902.293923     2592.473273     2441.993794     2038.647648     1913.553614     1633.893880     1284.090142      935.301400      665.874889      435.885024      360.229318      144.503383      -10.000000       28.844803      249.540405      121.750227      217.402526      -10.000000      -10.000000      -10.000000      -10.000000      -10.000000       97.050918       74.652194      253.788252      240.384250      216.562529      183.571620      236.767643      213.659925      247.193933      286.842380      281.631167      279.714411      256.382323      236.773242      238.680106      274.076202      329.554747      350.378279      328.329590      338.742080
-10.000000      -10.000000      -10.000000      -10.000000      -10.000000      -10.000000      -10.000000      -10.000000      -10.000000       23.754915       37.397862       45.546755       46.782346       47.774803       48.046116       46.999796       44.186146       37.753569       30.335921       36.575240       41.082605       45.357015       68.139207       87.145713      104.085853      100.572122       99.460200      136.202567      190.874727      239.898578      272.015560      357.463351      424.471983      447.300429      527.622226      496.767372      578.833745      567.907162      536.036662      525.764545      447.438231      355.400836      327.146401      366.038933      553.604067      596.730746      620.811807      829.050418      596.581491      549.251003      619.003133      805.756004      865.344449     1005.050827     1407.309881     2255.819227     2554.922744     2572.094618     2743.534843     2436.630140     2205.011379     2365.293904     2506.136362     2592.199826     2645.646418     2122.710028     2114.702199     2238.232132     2345.725255     1859.678820     2159.551214     2182.357874     2017.403936     1808.666247     2104.058244     2129.675775     2081.327043     2251.758093     2125.685489     2329.241798     2385.565834     2443.328495     2426.601214     2583.591270     2630.868527     2827.184191     2811.874555     2980.443778     2996.433705     3144.470847     3168.471554     3221.083909     3261.345860     3326.789352     3399.395548     3039.886707     3442.451681     3392.997386     2859.474806     2371.317656     2253.876212     1910.036326      996.023724     1278.246138     1393.381726     2126.408604     2479.932155     3151.637264     3704.504046     3885.030531     4206.434368     4174.078420     4180.949220     4201.245617     4218.121309     4230.112047     4240.785674     4248.425672     4238.852217     4243.133642     4141.393676     4215.029335     4222.456122     4141.655687     3851.136432     3743.736327     3406.717356     3686.295981     4304.597494     3874.156178     3648.022459     3315.372978     3468.958435     3529.821252     3566.024079     3590.701631     3591.434112     3458.029696     3258.237004     3211.891311     3384.835338     3256.673243     3171.648673     3023.614426     2760.030550     2511.828861     2193.619489     1911.927728     1545.731186     1236.421190      941.660655      706.590702      584.286531      479.923026      326.381333      108.869795      -10.000000      164.762311      262.888838      158.878312      -10.000000      -10.000000      -10.000000      -10.000000      -10.000000      150.136816      160.597864      252.516285      164.536853      215.689521      240.052175      187.286291      195.206229      206.764121      230.608122      246.152264      271.521530      253.075108      267.953706      229.887445      248.318881      292.580513      341.905640      345.886514      335.627686      325.841719
-10.000000      -10.000000      -10.000000      -10.000000      -10.000000      -10.000000      -10.000000      -10.000000        6.107206       22.005713       38.466643       42.722975       43.308168       45.387471       45.832679       45.874345       43.659477       39.384459       35.907131       35.954504       39.710605       45.275396       52.601571       71.092296       95.475229       85.690807       88.829232      115.437252      168.502843      193.390566      224.314745      290.464901      335.594096      380.020852      404.099260      451.794855      513.021743      519.772342      473.283872      390.792580      308.601508      272.985214      279.535295      326.107793      893.998515     1442.873497     1593.370292     1773.907441     1425.260533     1410.802252     1456.331922     1808.621023     1927.502853     1955.257094     2261.586257     2386.480383     2310.356599     2508.815695     2352.369773     2327.279664     2140.283530     1899.360110     2227.486118     2230.179904     2267.839239     2221.973640     2219.170822     2198.471233     2277.346586     2389.785212     2159.173238     2091.692422     2137.295329     2181.200115     2217.341052     2125.860698     2201.257443     2286.900689     2379.461820     2402.807319     2461.603941     2527.251491     2475.531542     2603.071528     2706.649482     2673.426856     2724.152925     2724.695367     2869.374732     3004.229907     3107.588503     3189.452939     3235.554639     3345.738566     3401.899795     3362.369275     3369.927507     2885.304503     2761.602704     2386.072191     1672.381764     1837.466722     1454.929830     1395.011626     1428.352790     2431.416026     2625.234943     3364.116519     3808.791369     4117.794629     4191.984038     4154.758493     4179.328610     4201.391216     4219.291158     4231.245595     4239.399489     4233.161227     4261.924382     4292.822096     4345.561599     4234.626476     4247.889426     3968.761634     3666.648610     3690.682464     3727.902588     4032.765312     3808.634864     3091.116538     3572.899828     3431.630110     3497.419621     3536.498802     3567.753297     3593.215446     3577.249079     3467.471026     3377.939773     3385.183736     3306.826210     3199.808744     3092.828339     2967.183110     2655.553487     2411.760330     1949.322434     1692.034571     1385.020633     1003.916341      763.802747      663.375899      592.437048      553.744791      454.199938      275.213536      330.076862      -10.000000      237.391514      141.837056      -10.000000      -10.000000      -10.000000      -10.000000      222.066265      207.120938       22.925387       79.089909      251.855696      244.087999      206.941325      193.938868      186.840865      205.959204      235.691735      236.911149      226.361458      229.105044      282.958492      189.257909      282.157287      322.125547      338.481066      342.404475      332.992560      334.282682
-10.000000      -10.000000      -10.000000      -10.000000      -10.000000      -10.000000      -10.000000      -10.000000        5.000000       18.828986       35.683809       35.033105       43.828518       44.234534       45.951064       45.612067       42.749274       40.460169       39.293839       33.428933       40.871915       48.241454       53.061668       61.987092       79.392498       78.675259       73.162093       84.023404      131.213858      167.708481      194.517991      224.796430      320.318924      368.860701      398.768345      414.451699      453.266142      403.040159      287.182037      221.510222      214.860657      243.145713      306.155325      579.103587     1564.235434     1775.537692     1991.708840     2146.853441     2085.889970     2106.885085     2029.532528     2144.514348     2169.506912     2299.223333     2272.505453     2236.071051     2142.175519     2292.111687     2208.908195     1692.231497     2110.456806     2144.573594     2083.956257     2120.415021     2143.856914     2169.968523     2039.762475     1991.869186     2184.005399     2230.444825     2147.361655     2124.166740     1929.761489     1826.422044     2049.543265     2182.096092     2119.624711     2391.148954     2478.439077     2514.455842     2591.830840     2603.642370     2590.489913     2652.962794     2756.726276     2786.679362     2834.658783     2727.206529     2800.542600     2925.997193     3157.490999     3178.044029     3166.782387     3202.492168     3346.269942     3383.584400     3207.367555     2421.786239     2653.007364     1871.487172     1918.939676     1917.746392     1512.204561     1508.017008     2242.038863     2979.815271     3129.903785     3553.591393     3908.486571     4123.771074     4168.817839     4165.656502     4187.144819     4204.121489     4219.245496     4229.714888     4230.070651     4236.653833     4366.387236     4335.121279     4367.591967     4181.004125     4105.348042     3840.760167     3925.500858     3838.194458     3997.530571     3969.550694     3556.362508     3364.980947     3550.954914     3599.099799     3564.985947     3563.876228     3579.135210     3596.921980     3550.416135     3465.681103     3402.627203     3372.241480     3252.606316     3160.399609     2983.306613     2821.466746     2581.120288     2307.098208     1876.289706     1500.511148     1088.874269      821.439655      738.720377      647.595442      591.240222      580.234807      540.716143      447.082420      362.728005       71.161552      -10.000000      -10.000000      -10.000000      112.081718      135.465236       90.342186      187.355188      198.602926       57.217161      190.240685      296.115950      212.714701      188.884950      190.801213      194.396264      207.982834      191.644343      186.265583      189.753870      198.187464      230.346450      267.239528      347.581412      329.512802      330.880411      328.178996      336.604615      305.102565
-10.000000      -10.000000      -10.000000      -10.000000      -10.000000      -10.000000      -10.000000      -10.000000        8.828020       25.868518       36.079496       41.997525       41.829763       43.470144       44.402946       44.539078       42.119818       39.292848       40.451677       40.133723       42.572109       48.010822       53.546714       60.538747       65.633414       71.161529       68.469134       68.620439       88.387644      137.098518      173.150961      215.039955      273.424641      332.956174      375.570919      403.554914      406.804096      222.532431      191.672596      179.488902      186.300226      224.607724      339.727409     1052.772444     1872.377772     2129.343915     2159.789121     2178.384265     2178.098429     2176.831018     2207.166809     2219.099118     2200.480805     2266.223143     2185.233861     2183.261846     2152.867748     2158.903222     2092.748653     2006.774438     1631.620043     2244.584674     2118.781704     1711.579639     1969.630277     1761.500454     1462.964868     1705.230271     1916.216108     1446.380363     1766.392045     1838.726098     1684.549825     1645.442642     1856.966143     2142.100625     2295.662884     2417.363869     2580.788849     2612.552330     2626.461666     2628.614994     2653.847855     2731.917228     2792.601816     2724.893553     2790.434646     2784.253610     2829.520842     2980.061613     3039.886499     2957.091007     2997.643992     3045.796182     3265.203693     3191.454235     2698.145375     2002.193094     2705.602274     1430.984571     2029.756878     1722.951031     1405.676348     2419.790004     2512.233609     3138.597967     3411.497458     3666.098190     3954.222653     4070.155572     4201.916469     4198.713613     4196.106055     4204.952491     4214.794755     4220.781250     4223.397050     4232.357984     4326.173908     4307.997839     4377.121784     4171.115667     3657.834604     3816.035260     3779.606839     3933.557921     4191.678007     3861.061878     3519.606350     3681.516106     3677.084574     3647.749588     3603.718454     3581.228825     3584.865876     3598.387057     3532.099140     3449.926382     3400.699954     3306.930219     3206.624834     3054.462883     2890.341394     2581.722115     2376.034150     1995.259746     1594.859571     1223.647618      805.845358      727.988119      707.096217      664.168697      610.892039      610.521150      612.702805      561.024775      499.765721      355.182255      -10.000000      -10.000000      -10.000000       43.919759      233.582018      229.391454      197.695218      295.555534      261.592607      178.194313      231.182833      261.865911      181.170140      197.215490      198.986190      180.684234      179.038684      161.784445      179.131545      220.700938      234.870094      276.045992      255.324983      226.380366      200.439840      242.590999      264.521992      242.637630
-10.000000      -10.000000      -10.000000      -10.000000      -10.000000      -10.000000      -10.000000        6.250734       19.781766       31.216713       36.179872       43.719827       41.224585       42.981251       44.092809       42.768644       41.430163       39.495371       40.554995       40.395054       43.416958       48.163010       52.221834       57.714760       61.458977       64.160836       63.139951       64.007742       73.210624      113.531532      150.872197      196.824218      235.573904      328.945339      407.956044      356.884073      278.307897      174.879411      167.450399      177.519866      183.540304      227.855726      304.634809     1073.360625     1871.929714     2130.934771     2181.483222     2185.376887     2200.288828     2191.212603     2202.333338     2193.320243     2191.807064     2238.764159     2201.974572     2040.353002     1767.813472     1623.670356     1813.568293     1839.536173     1435.020745     1226.119103     1527.198983     1699.239730     1529.584245     1564.572042     1509.115079     1691.568330     1605.737327     1289.972939     1779.370773     1637.482119     1643.434670     1753.889225     1935.664266     2173.422889     2431.736150     2551.713331     2603.064869     2633.493785     2655.199495     2687.967866     2713.189328     2728.293108     2664.991456     2762.878442     2788.513699     2797.485734     2810.992821     2822.798238     2810.704601     2788.740708     2672.320408     2767.510220     2737.781764     2756.998752     1571.525635     2665.005997     2547.791802     1575.608286     2033.844179     1574.961116      875.174465     2047.340093     2471.957337     3094.984672     3395.659197     3693.827633     3982.598977     4193.487954     4206.087970     4194.717992     4189.463977     4199.197580     4208.769895     4218.142617     4229.733408     4218.806552     4288.794702     4308.620499     4434.235293     4143.044100     3773.174299     3829.507939     3824.756195     4002.133056     4018.620635     3418.008064     3634.194455     3637.423090     3655.771128     3666.935769     3611.107081     3581.825407     3578.900056     3594.432377     3509.857165     3421.866214     3348.630684     3239.618842     3132.107247     2989.893844     2795.042376     2562.781624     2292.175568     1900.847757     1567.148793     1244.150779      844.830512      699.032246      683.233641      665.095987      636.049714      643.695913      626.991525      587.664525      550.906293      491.874673      347.007664       95.441289       98.981228      125.327899      208.961847      219.762863      195.517326      264.145133      145.327521      143.582715      208.898303      189.085094      176.233085      194.973161      205.615411      177.813879      161.592099      150.901125      209.168863      198.981723      202.394244      221.639940      236.399873      204.224450      192.642708      209.135670      193.266111      159.458637
-10.000000      -10.000000      -10.000000      -10.000000      -10.000000      -10.000000        5.000000       18.646708       24.751023       31.841186       39.643077       44.892766       44.559827       42.516543       42.175315       40.517973       39.938625       40.176345       40.087074       38.551217       44.478488       48.622737       50.464783       54.726274       57.870930       59.205906       59.606920       61.224902       70.730313      120.949586      162.163935      187.112725      224.710558      248.708412      293.600041      250.028498      198.123194      181.511800      199.799060      289.688039      344.188269      341.717692      495.204887      923.918080     1866.494315     2114.871698     2182.022280     2200.744527     2182.147265     2158.575581     2175.354150     2182.119003     2143.094054     2038.446529     2122.596195     1883.903473     1697.446025     1567.634593     1568.987080     1587.646127     1670.622038     1327.041212     1497.516227     1659.593353     1797.715680     1593.727190     1598.476815     1642.676556     1407.776008     1546.007251     1820.303191     1947.305175     1847.613670     1823.536960     2221.870920     2452.119811     2477.476675     2429.698832     2623.713405     2656.840554     2675.679423     2695.411601     2700.509984     2715.621266     2692.800443     2783.913432     2817.005056     2794.296867     2792.101582     2797.938398     2793.544501     2673.397302     2595.831711     2318.613405     2465.161842     1662.957688     2464.444765     2629.227023     2281.112825     2113.099383     2113.016709     1437.004523     1329.721968     1358.258632     2757.253357     3132.420880     3512.095483     3691.203190     3991.143323     4204.392506     4182.107706     4169.067352     4178.617172     4195.264278     4206.489860     4223.019767     4256.301196     4288.211819     4032.315171     4274.674216     4317.710718     3801.374221     3804.629639     3800.442773     3994.466992     4145.738256     3679.630738     3555.315089     3699.103758     3631.351418     3635.286579     3630.041480     3598.852765     3586.084947     3579.734464     3575.384560     3473.481022     3397.190382     3268.001526     3149.922367     3003.945876     2885.838415     2680.147167     2551.860550     2129.437724     1946.343463     1626.315069     1205.456830      642.503048      661.360750      660.048376      677.060131      649.128542      637.562032      622.970287      595.479797      579.233738      541.330202      505.812364      430.010711      247.571919      213.917849      218.732344      167.516200      152.222371      197.558120      153.756150      129.737007      196.913079      209.507756      208.760892      172.143305      176.945566      183.055766      201.071280      215.333784      205.314073      209.220322      203.036863      204.747434      215.518989      157.888886      150.167083      168.413708      157.331407      115.813847
-10.000000      -10.000000      -10.000000      -10.000000        8.671786       14.409653       20.475466       26.287370       27.675201       33.876203       42.702913       45.491293       44.250589       37.287807       39.880520       43.078072       41.538863       37.729240       40.283030       42.960731       45.769821       46.522787       50.909326       53.082822       55.393288       57.780286       59.615758       61.090871       84.811321      125.267306      166.222376      191.344690      204.104923      203.692493      197.447232      197.473308      200.096656      228.381466      237.068988      298.996846      458.850088     1003.014108     1089.048801     1112.438435     1762.897556     2142.828875     2144.685336     2170.128141     2173.432105     2180.337774     2192.795140     2165.470535     2079.575353     2005.712000     1997.591285     2022.232997     1760.590633     1446.284879     1249.194478     1301.944687     1379.600043     1516.571147     1523.266403     1603.503716     1751.809417     1639.765469     1786.836654     1623.425751     1778.459605     1691.418093     1620.094738     2007.405390     2001.785525     2167.616671     2316.330869     2596.854408     2605.707291     2607.155526     2674.367037     2693.421843     2702.926924     2711.462485     2730.028780     2754.933718     2800.337047     2794.902484     2781.789099     2778.949534     2783.597834     2788.910697     2792.750161     2764.369144     2498.472980     1903.391217     1978.098080     1718.202888     2633.327988     2574.107053     2111.993546     2331.560934     2290.861844     1275.763998     1208.372561     1406.509982     2834.109281     3027.788471     3463.979883     3864.790328     4088.206571     4180.556786     4141.356586     4159.647932     4176.575960     4188.608348     4216.329832     4254.299776     4289.179418     4323.160699     4053.370141     4256.689637     3366.214828     3180.605755     3537.809068     3983.590255     4121.201685     3704.753130     3790.210363     3642.983716     3626.038378     3620.836152     3622.769425     3617.380321     3601.615821     3599.937413     3593.243810     3514.633511     3411.039845     3294.063827     3031.398254     2948.478285     2824.284537     2715.751803     2514.563033     2366.142507     1983.638481     1888.220202     1608.353267     1096.962413      665.668533      598.600000      614.281536      610.860586      604.531471      599.945202      587.735839      563.571719      559.446304      544.351977      535.620628      490.427420      415.771958      303.801210      291.792488      282.146772      219.752738      192.714193      184.560183      186.707135      191.637546      197.451808      193.961885      212.417475      210.109304      245.439984      270.070668      296.079130      274.545805      242.903537      213.495930      145.830118      138.943325      158.940965      163.004962      163.064157      152.886844      103.159057
-10.000000      -10.000000      -10.000000        6.781865       17.826467       23.088692       27.027056       29.998911       32.224276       38.180071       42.517953       43.304160       40.106383       38.497775       39.917240       40.380241       39.772998       38.571614       43.123103       43.468415       45.594112       46.520568       50.227241       51.385011       53.700090       57.230141       61.275186       73.669894       99.321495      118.476001      162.055105      173.863676      188.516765      191.354501      179.609464      199.832835      200.301907      239.590697      272.497142      335.882933      497.082804     1112.223698     1468.154123     1765.492749     1931.300838     2005.761348     2192.142867     2196.298942     2195.193026     2193.891544     2157.692095     2087.994972     2024.317013     1984.797131     1799.579694     1530.101016     1632.816667     1416.247557     1040.759789      997.404075     1081.304803     1263.817318     1138.899886     1219.203326     1519.280716     1788.146246     1704.443850     1643.521649     1717.754649     1645.945424     1691.797529     1951.562299     2243.108711     2451.032518     2587.077883     2638.728747     2656.084393     2658.595094     2679.261390     2696.314336     2699.002780     2718.197910     2724.587179     2756.752191     2785.695267     2769.020072     2765.851428     2767.941788     2772.498867     2772.843267     2763.324692     2791.563445     2597.439120     2420.510047     1628.420953     2403.589813     2643.940734     2498.615305     2397.094562     2385.277608     2362.993663     1715.193651     1237.207945     1176.769409     2533.492248     2865.816538     3721.968947     4041.907777     4132.205131     4148.234216     4160.105757     4166.548936     4179.779518     4201.999362     4253.183918     4296.715172     4314.554895     4292.279194     4159.628462     3594.492430     3783.532816     3685.484511     4085.116609     4184.616992     3847.593383     3398.395631     3586.849012     3683.668744     3651.860127     3618.786843     3612.136812     3613.573963     3599.500787     3599.997387     3563.782536     3450.129077     3337.787257     3142.441629     2921.987402     2749.870589     2628.410849     2379.442727     2189.811876     1901.359605     1882.023363     1639.935685     1289.165614      659.264374      436.061067      454.611224      472.872014      500.301962      537.404938      547.544515      573.187829      580.015540      574.851444      561.020973      545.244188      472.744821      408.199107      394.579680      399.992929      353.816022      311.230520      246.685049      233.465971      239.773321      235.681557      222.546144      250.082564      280.390836      277.753520      276.240626      299.962154      312.947453      335.528270      301.897002      257.527045      222.032582      176.905429      186.682662      110.656372      160.858274      145.155379       93.490290
-10.000000      -10.000000      -10.000000       11.106594       17.360058       24.166820       29.685421       31.176449       36.132982       40.744645       40.879887       42.775982       41.417860       34.825431       39.989286       38.549097       39.326062       43.877458       45.133248       45.100597       45.581869       49.827111       51.263672       51.021345       52.557190       58.588337       61.010190       68.220856       93.617571      109.422978      131.964138      152.570414      170.500425      179.631090      183.853883      193.721253      208.390151      254.288774      284.382825      389.023255      526.872444     1061.830268     1352.022245     1629.720965     1863.480993     2056.813855     2195.285249     2199.968875     2199.857770     2128.709192     2053.054334     2013.101614     1924.600731     1736.178032     1549.197178     1403.995264     1298.089712     1266.359814      993.034139     1348.878843     1554.775647     1511.864495     1495.884910     1429.257437     1272.464747     1456.662876     1784.391672     1787.060730     1418.444281     1669.062192     1958.811640     2153.553904     2319.887757     2606.925765     2640.411248     2664.958715     2679.343860     2680.918111     2685.559727     2702.797424     2751.720669     2798.563619     2790.808375     2787.782712     2778.777328     2772.805935     2762.112109     2763.971870     2766.088727     2763.595754     2767.103578     2790.742880     2737.115393     2559.246665     2366.624342     2660.909358     2584.020786     2579.842706     2418.804440     2354.034281     2350.324193     1935.761023     1268.481712     1253.679685     1688.560109     2881.210285     3746.629770     4014.671137     4088.408425     4162.656507     4191.959538     4159.380800     4169.142867     4221.452269     4283.306451     4332.704247     4331.783178     4225.461747     4233.297687     3901.533901     3936.909625     4055.812690     4204.474888     4020.931738     3508.571159     3332.485666     3084.275732     3646.404504     3634.553624     3607.521286     3600.654253     3526.718443     3526.887385     3592.117066     3481.417645     3392.191739     3148.326492     3015.802356     2939.584435     2600.820864     2436.659273     2021.516614     1753.384365     1514.154746     1244.494359     1003.569368      585.896349      375.859194      327.250999      281.147821      223.659107      227.852080      336.995409      476.445268      537.052574      562.982440      582.790379      588.702497      569.546978      531.766221      434.722877      486.052998      505.121253      479.477645      455.275851      395.260275      341.679163      300.341252      236.679452      239.522133      272.353114      293.451605      314.364743      318.660281      329.632340      337.053402      338.053767      328.781183      333.763423      273.568780      192.900651      191.543959      161.927827      157.456291      126.905976       76.492151
-10.000000      -10.000000      -10.000000       15.684556       21.766432       24.113413       32.215905       32.610848       38.728177       40.025192       40.706885       42.259573       39.426587       38.058109       40.749678       41.858759       42.238299       44.597504       44.795588       45.498389       47.787155       46.017993       52.513579       51.536442       57.001627       59.458599       61.057350       72.731171      100.187357      113.257318      126.089091      141.621344      159.761999      173.904730      184.097983      195.367446      195.529056      258.320952      332.735949      391.399607      443.293291      645.685617     1240.736359     1639.893491     1901.543225     2030.267048     2187.588535     2198.044631     2176.013129     2048.590966     1984.053475     1915.988286     1725.035238     1462.129301     1345.065679     1045.378930     1024.830366     1395.103341     1381.749926     1427.736844     1490.070131     1593.532157     1599.339462     1598.090270     1462.945032     1443.731285     1783.033201     1710.828802     1695.621852     1884.309666     2188.765508     2254.213325     2521.412334     2628.245155     2671.882339     2685.224738     2695.853303     2693.153743     2704.522145     2720.670627     2799.423538     2799.656801     2797.569105     2786.964796     2799.882727     2800.978392     2796.418299     2772.335321     2763.133776     2763.505079     2765.314436     2764.195704     2771.111919     2598.176469     2675.454572     2674.670257     2575.337835     2522.944822     2456.162112     2201.664302     2218.709509     1753.906915     1399.516053     1409.387046     1933.351652     2717.700166     3754.988993     4013.487310     4078.594074     4108.349184     4161.674997     4149.978417     4183.261564     4236.101159     4289.565911     4334.159130     4330.935893     3572.663402     3853.301805     3824.880876     3885.209701     4201.647506     3973.680297     3477.141383     3605.215997     3567.413949     3597.798480     3576.631473     3600.184322     3586.205162     3581.172419     3564.334921     3504.467934     3422.580730     3348.194428     3212.925285     3174.349956     3033.678768     2738.898337     2373.880014     1980.663345     1676.722003     1301.214977     1016.072036      773.909811      472.223240      382.300672      327.419718      219.136435      173.392222      128.917048       73.108777       58.831954      176.098337      438.440768      506.757710      571.487016      576.973783      574.488884      553.465366      486.765153      514.491247      527.516225      474.016923      496.719343      461.326799      393.162347      365.157170      290.533482      314.386545      299.908072      346.671612      343.500250      345.876102      351.775466      334.457856      336.081592      335.604843      313.503752      203.462805      205.738994      202.157384      183.076752      144.300872      140.042585       98.630835
-10.000000      -10.000000      -10.000000       18.841060       21.368361       30.185454       33.880034       34.610275       41.085105       41.804887       44.650450       41.489913       40.649493       41.518659       41.186228       43.728902       45.780535       47.517817       45.113648       47.608677       49.434547       50.519369       50.452183       52.590758       56.561627       61.819699       82.912296       94.264118      103.299042      110.243210      120.596823      137.379915      152.729401      169.984934      183.930854      195.017140      229.173687      255.710786      319.162244      351.291602      407.573368      445.391830     1100.530450     1562.352996     1906.695832     2060.081096     2155.805518     2198.156355     2168.438323     1989.393907     1863.796076     1727.026600     1440.859751     1258.249319     1318.373938     1015.453681     1063.348901     1515.146041     1569.081381     1558.534194     1615.592675     1609.397613     1620.695441     1694.986573     1727.079626     1765.109387     1796.749711     1848.166820     2023.367946     2041.528231     2331.610315     2523.175516     2606.618124     2660.847366     2335.959493     2593.293501     2697.881902     2697.972021     2705.239185     2714.677358     2745.821745     2770.838417     2793.300750     2765.743006     2799.245723     2800.270829     2800.662648     2761.820035     2760.533778     2763.778729     2773.139994     2786.088415     2776.563741     2669.192136     2704.600807     2688.715385     2640.101764     2607.542058     2477.695622     2293.908529     2110.981862     1619.374123     1271.053607     1441.328279     2063.949549     2856.017765     3777.495008     4041.300704     4084.869182     4112.028613     4198.185816     4196.540002     4209.189044     4241.739984     4273.376916     4285.630684     4227.958542     3017.120763     3726.511407     3581.609685     3913.430138     4159.167449     3707.432406     3419.242611     3567.621943     3562.078509     3579.078007     3585.124900     3574.148832     3489.732029     3558.057279     3427.069601     3399.953718     3400.005086     3318.553509     3207.981866     3161.195126     2945.026003     2551.718682     2171.728086     1738.753340     1354.794199      904.056284      559.128630      456.858909      389.073963      397.960153      286.352514      172.187863      188.927827      142.222940       37.370109       26.509686      110.432927      184.645864      350.301738      526.628939      535.380459      577.142818      553.364045      544.649049      540.585845      538.205641      517.906926      504.759631      486.778070      460.946797      371.731129      328.344786      288.946962      336.814326      337.390018      337.131956      323.054412      322.693249      309.851775      304.616238      289.755628      232.419735      210.214933      166.309964      235.810195      239.421384      189.905896      154.509085      140.975073
-10.000000      -10.000000      -10.000000       20.635514       24.454485       34.190403       34.626851       37.640722       41.139988       45.755068       46.991170       44.850161       47.016144       49.339591       43.546090       44.862862       47.524477       45.046721       44.345714       48.615798       49.616409       50.322410       50.444872       54.720324       64.173719       65.740992       84.001692       94.405130       99.361526      105.031472      119.876027      132.827835      149.482318      168.016085      184.507552      198.666978      229.504020      269.513640      287.466034      300.688996      344.284663      379.896370      874.197728     1478.799769     1834.786278     2032.830109     2125.814865     2114.758670     2078.100396     1825.395190     1782.471258     1543.508027     1393.674966     1396.502294     1395.176352     1460.983090     1582.250420     1578.162525     1592.507036     1280.355816     1630.289557     1684.419546     1740.011856     1810.461419     1884.333036     1900.461865     1847.646998     2074.312930     2199.776810     2308.330531     2507.229121     2614.506054     2620.131174     2634.837801     2665.415763     2679.842485     2680.139886     2692.736623     2704.443936     2714.547653     2725.363665     2738.460619     2757.584888     2774.383718     2798.699880     2797.753725     2761.714126     2760.196363     2758.750641     2762.077911     2782.090912     2796.909810     2776.556424     2722.354615     2707.913619     2678.853872     2662.283203     2621.899787     2511.954856     2292.213826     2139.974811     1858.167869     1498.091232     1307.998172     1972.844245     3253.950280     3825.777118     4049.681155     4093.717408     4095.046463     4134.206825     4205.217098     4221.874415     4242.409022     4269.858575     4267.726507     4088.376288     3914.424416     3923.867364     3581.043841     3856.455151     4123.522125     3251.312345     3199.675920     3559.350533     3545.467936     3573.837561     3580.416451     3530.478064     3449.229502     3410.916226     3400.322224     3401.499888     3396.927728     3337.688686     3185.525053     2992.865271     2813.040284     2435.478003     2006.731624     1465.299891      919.486890      555.688643      396.964152      394.190049      404.296257      535.719647      258.388130      177.530896      174.832360      165.730878       87.002900       22.148581       38.517449       65.775400      185.289055      331.457526      481.124765      527.187551      548.302480      572.927559      538.500100      515.719402      522.381775      516.595111      503.403979      449.135270      362.691845      347.308408      312.939273      339.230225      348.220011      346.189397      335.926444      309.984843      294.792317      242.243505      222.169833      184.967622      177.458648      192.797420      194.415013      182.931327      133.854089      107.512728       86.178217
-10.000000      -10.000000      -10.000000       13.407765       22.546615       32.995423       37.174760       37.507380       43.935001       46.946680       49.015114       48.456101       47.615176       47.875864       44.946478       49.387087       46.346586       44.215518       47.651936       49.357981       48.486538       49.204169       52.383460       55.833225       59.164589       58.793046       66.596362       73.758385       77.910073       88.116245      113.146290      137.199720      150.997472      167.010045      184.809034      199.666460      221.049892      246.198563      256.886002      280.567181      283.739382      315.237217      603.522761     1326.041093     1759.814402     1987.195313     2001.858906     1999.801228     1865.580279     1631.500259     1514.830131     1385.411919     1243.684936     1275.226437     1400.528012     1444.693146     1574.622668     1510.432754     1594.002812     1583.204110     1657.434736     1722.489893     1774.295889     1807.359111     1904.039434     1985.491837     2048.150739     2221.483759     2354.894719     2459.116423     2602.473118     2606.024619     2617.930870     2639.313779     2665.746609     2669.349246     2676.267601     2689.967778     2706.709065     2715.514854     2723.803668     2734.600391     2738.770121     2749.062216     2789.014136     2792.664361     2769.035913     2788.434482     2778.353127     2758.951489     2796.523523     2794.343394     2727.233958     2703.399096     2710.548916     2692.546596     2674.093911     2627.444690     2537.961603     2310.465649     2110.155031     1867.780072     1475.219637     1421.272428     2128.370557     3672.967483     4010.860614     4105.775426     4139.953415     4154.005497     4164.661425     4156.003831     4231.590210     4255.607891     4278.651672     4255.885386     3901.941236     3893.594877     3762.520008     3329.728332     4024.867901     3834.721076     2123.246462     3591.139281     3179.102155     3317.061649     3560.148773     3569.836684     3511.281925     3428.959548     3400.438134     3382.278989     3261.978974     3250.841815     3150.199262     3011.204017     2886.568946     2801.894744     2387.876299     1875.021533     1175.844390      602.811737      425.575517      366.305209      538.078668      515.562516      530.968788      310.180394      185.593363      166.393308      157.685470      125.263891       41.420569       29.687078       47.651479       73.945870       93.578493      324.279266      439.523984      529.543281      535.471887      544.419050      535.764937      514.175810      495.363629      472.722603      397.707823      346.477598      339.920443      338.424967      344.991264      352.411366      313.686783      257.728992      289.426184      237.451836      158.077073      119.934513       97.866275      149.889503      179.148691      181.631919       99.103690       54.507149       55.412197       38.292808
-10.000000      -10.000000      -10.000000       21.730955       31.534450       35.592182       42.260268       43.129028       45.495252       45.016011       46.245744       48.717603       50.287294       45.313367       42.387743       39.616816       41.339041       48.358106       48.352845       48.718118       50.707729       52.160581       54.211321       57.463850       59.864024       61.918100       66.491409       66.831591       64.608071       66.659871       90.118066      134.311565      148.226906      165.783095      185.766312      200.373132      212.539669      226.377462      231.805695      241.762765      261.535431      284.967470      456.434328     1091.041810     1662.415266     1760.239978     1819.576602     1847.809624     1718.155094     1276.184902      985.358892      870.429658      900.135307     1196.368818     1412.020036     1424.086274     1581.494351     1556.469144     1558.259987     1628.300360     1666.016566     1710.539122     1786.751517     1829.209473     1917.792726     2015.115264     2186.882339     2322.416666     2455.787809     2540.251497     2582.086636     2592.776741     2613.759837     2630.014184     2646.080089     2654.935637     2666.407863     2682.645921     2697.617179     2711.008140     2720.824483     2738.283596     2756.677480     2746.584195     2747.913957     2782.654846     2795.930649     2885.137583     2832.394417     2773.870712     2763.594207     2753.470856     2713.376491     2676.253723     2710.412848     2712.842234     2707.356629     2645.653213     2532.107820     2257.690554     2131.194832     1833.586969     1400.658226     1964.006909     2874.485192     3653.599702     3969.092444     4089.655077     4132.203033     4157.110517     4154.433605     4103.218177     4184.270967     4235.537452     4233.167859     4018.656359     3831.627065     3807.688416     3403.910844     3948.980305     4224.483127     3400.768857     3486.841163     3579.918606     3599.240271     3603.757937     3596.408772     3594.503480     3520.400469     3422.293603     3396.060128     3315.584812     3209.772972     3103.006206     2996.669218     2841.471602     2767.565795     2679.139146     2070.721329     1582.885169      718.514924      374.706921      379.388343      427.564424      592.537131      516.322543      368.766692      323.253598      198.530851      138.023879        5.000000       78.465822      127.127406       48.699487       43.034016       41.810083       66.517211      180.539318      325.948432      454.679918      486.645785      514.954973      509.813095      492.144261      483.456617      458.826357      397.329107      380.782816      369.698645      378.633536      348.393143      337.020965      329.184671      330.563669      316.020290      196.842213      105.830166       87.875582      102.995790      174.450204      190.260191      187.294006       85.908174       13.547414        9.949171      -10.000000
-10.000000       17.100139       31.321636       35.691686       42.896611       44.389951       44.990892       45.511694       44.733688       42.978012       47.683807       39.608301       47.119496       42.220712       32.851660       34.725693       42.607895       45.323880       47.957420       49.976281       53.621560       55.107468       55.797403       58.327646       60.042811       60.296737       58.174395       60.131565       66.282870       81.435843      100.453252      124.505735      141.105258      168.950983      186.947112      201.248509      206.433025      209.752869      221.120616      232.434516      238.619508      257.727027      315.709731      788.797930     1238.715739     1495.847604     1543.237177     1309.025547     1058.979407      936.779416      809.102988      838.626964      989.281698     1189.483675     1189.759019     1221.959454     1246.038715     1343.103645     1408.680574     1539.859828     1592.747609     1638.868841     1730.115086     1831.350264     1891.777879     2036.401082     2218.925602     2367.143316     2482.675071     2533.663040     2595.011458     2596.913317     2599.457880     2606.167178     2621.071392     2635.810705     2649.619109     2666.723293     2685.573583     2700.794019     2715.075375     2728.583795     2793.409901     2743.321116     2757.185431     2765.279737     2762.111553     2918.324487     2819.704872     2769.676041     2731.702172     2733.605110     2709.807472     2649.115325     2697.707110     2724.517400     2701.614354     2639.979259     2541.464040     2322.504567     2094.577077     1912.441742     1308.792952     2343.877465     2552.071188     3391.780481     3997.413123     4054.287497     4099.093157     4135.875643     4158.212362     4157.427927     4083.587303     4190.969107     4223.417097     3811.136385     3844.849672     3783.115947     3537.186508     3730.144982     3811.822112     3295.856765     3474.195014     3524.263942     3575.056387     3598.769642     3599.038651     3595.052978     3517.282145     3418.919882     3385.674792     3282.654903     3205.053802     3077.733878     2940.928150     2667.911291     2384.503134     2044.881874     1484.557633     1053.518044      217.144471      173.187400      306.728859      549.697538      550.973068      361.826493      356.635185      326.764758      248.196670      151.674473       69.935908      123.421726      156.591088       67.303247       43.878576       46.687687       89.833415      150.498064      190.334390      342.840040      402.334197      459.619853      484.287709      506.265945      486.492774      446.387806      398.174691      387.594192      404.457867      403.334887      378.781699      358.983933      353.480527      334.819740      259.751251      172.566283      176.643612      171.201332      180.807416      180.725638      206.709225      169.703003       64.559239      -10.000000      -10.000000      -10.000000
16.924759       26.849423       35.771089       40.845622       45.706339       49.840851       45.146476       47.498329       48.057891       47.073605       40.877446       40.030990       39.485524       37.387746       35.338323       36.667039       38.569054       41.854254       47.328958       49.814047       52.699670       54.625375       56.133434       58.311912       60.263483       59.627516       66.932675       75.033462       74.477621       88.878015       83.104173       96.762467      139.681183      173.110329      166.664780      171.617052      207.895626      202.659937      217.890898      224.227979      229.333177      238.480246      265.384663      576.271948     1041.704917     1201.679175     1200.855854     1120.998777     1025.074441      978.195208      936.145427     1019.830412     1134.047666     1140.279928     1099.711563     1058.094885     1006.337939     1086.383297     1122.632236     1149.330983     1332.858626     1583.746280     1683.191607     1807.414752     1894.373236     2038.431932     2180.629167     2349.275970     2455.525553     2492.516056     2538.798949     2612.051352     2568.995962     2574.733249     2599.409174     2616.913978     2630.072793     2649.879578     2675.452754     2693.549547     2703.863914     2715.024771     2721.674111     2784.623824     2780.697379     2789.713794     2821.665789     2779.353675     2775.174360     2793.276044     2757.610228     2671.641538     2637.777998     2608.153127     2578.368621     2605.407129     2611.526880     2583.012165     2391.652501     2228.870316     2013.851439     1553.785151     1434.094842     2291.049367     2678.189337     3810.339743     4005.966384     4019.090435     4064.747566     4101.330762     4127.895066     4130.462855     4092.884060     4070.712127     4131.691232     3869.739145     3705.095715     3761.828603     3626.896553     4158.836519     3894.963032     3460.085364     3447.651181     3498.608726     3581.428486     3600.414591     3596.881222     3544.963376     3461.922867     3395.248058     3316.321524     3226.542604     3174.166330     3026.859117     2967.883632     2483.210918     1945.205846     1336.846397      849.693642      457.256715       87.713370       96.305026      152.726629      275.513375      460.071928      386.961872      328.196438      310.148892      285.607145      190.663813      145.475888      121.191410       94.607880       69.911571       40.624190       49.795540      126.321524      129.052397       38.132469      217.562138      343.750814      408.621730      458.521349      469.477852      466.880377      457.342640      421.195376      413.208229      421.769001      399.362523      422.319520      391.315865      360.510118      328.301089      227.660031      134.765397      113.247091      106.823624      196.081777      178.257202      103.959989      142.372431       48.169538      -10.000000      -10.000000      -10.000000
43.650485       40.249140       49.904143       44.988014       48.957050       51.005691       49.366331       50.379542       49.947615       51.126174       39.476121       33.747598       31.691351       30.204054       31.191757       32.256474       41.703103       40.619409       45.744333       50.480312       50.821450       53.483441       55.364705       56.582012       59.686981       62.086509       62.462573       71.215777       65.867253       65.403856       77.626739       86.314964      115.660569      117.482657      140.000924      172.178644      192.177959      200.123823      205.888590      212.515035      219.319860      230.947700      263.484191      363.244103      770.071088      995.879798     1053.569729     1156.091075     1081.151462     1052.616471     1088.538817     1109.090500     1129.345747     1135.785021     1125.474357     1099.065368     1049.513212     1042.331753     1062.091973     1079.305529     1234.303823     1411.230979     1560.411017     1694.650323     1794.016488     1843.260039     1948.442874     2208.937399     2417.409963     2429.919222     2442.622325     2469.042549     2505.350838     2512.014197     2538.289501     2593.489969     2608.583558     2629.640929     2648.263619     2656.878148     2670.106695     2695.567408     2723.709349     2719.129846     2804.796380     2956.619388     2956.767675     2753.801743     2722.670068     2736.043407     2723.961711     2640.461365     2616.762530     2593.965221     2574.296500     2599.895898     2541.015072     2410.943340     2252.134462     2054.698826     1762.716978     1377.491543     1911.573214     2480.262673     3294.794898     3800.667108     3966.942161     3997.763991     4014.540982     4058.090699     4091.915856     4106.342734     4098.244926     4074.139850     4031.856336     3796.143315     3572.486545     3815.614304     4005.365725     4201.536489     3584.746849     3414.288105     3459.484702     3511.534255     3566.989443     3597.089142     3584.283991     3508.856652     3422.317741     3379.295011     3254.930731     3174.746267     3036.666987     2824.602538     2699.976773     2408.394800     1467.280392      691.664285      225.484495      182.840820       53.929136       63.036872       62.103781      180.521291      321.084894      371.036840      350.566696      309.785277      334.133186      237.712782      153.203007       94.724819       90.591700       92.979297      105.402703      103.357163      114.210916       95.375852       27.159543      144.452356      265.274633      380.230215      432.149196      438.625022      472.289541      481.215266      427.258734      432.239801      428.854524      432.955525      431.973988      439.889072      435.725398      364.893640      181.041081      162.009798      192.216739      212.898222      130.661156       62.530509       85.251568      -10.000000      -10.000000      -10.000000      -10.000000      -10.000000
50.746336       49.609845       47.726569       47.620873       50.130879       49.607921       50.233895       51.994034       52.591215       52.356402       42.543883       33.403744       31.629406       26.634607       23.796209       27.282140       35.921953       40.799582       46.852562       49.953515       50.221308       52.079465       53.778344       56.366568       58.895154       58.662079       59.614003       59.015352       60.048962       62.133349       72.168914       95.100027      142.688004      146.389600      165.909377      182.348428      189.835540      196.486421      201.173131      204.319502      209.466092      220.609265      254.860577      334.211995      589.899441      851.855077      971.088971     1018.895706     1085.838771     1095.905612     1096.751060     1101.424329     1132.866220     1152.966611     1158.357090     1151.444034     1189.350335     1196.819753     1200.815444     1199.666352     1199.618801     1195.652891     1237.515996     1291.868587     1395.444960     1440.353480     1510.238511     1683.682611     2130.150975     2394.175984     2388.973806     2397.888603     2392.592736     2413.367449     2422.369590     2445.353807     2557.450667     2607.236200     2607.199287     2598.233913     2615.995567     2654.788981     2664.256299     2665.077584     2687.659620     2678.434898     2674.570866     2661.712359     2667.355037     2666.826495     2656.808454     2604.388248     2605.226487     2599.116848     2573.873814     2550.473312     2479.327169     2418.051173     2209.007120     1897.125034     1491.070632     1388.172461     2242.791751     2686.386818     3513.070588     3785.734826     3892.695781     3971.294264     3998.923222     4031.333976     4067.388138     4091.363072     4097.863712     4078.157306     4026.667966     3795.496955     3275.833045     3754.997803     3906.261748     4201.477422     3469.368462     3432.578412     3491.538504     3532.948714     3565.311870     3592.760559     3571.847418     3479.427988     3403.932441     3319.480313     3221.895269     3104.814765     2939.593860     2724.337969     2345.483647     2049.114064     1139.196520      287.037505       91.355811      130.514228      124.767873       45.391030       43.035510       99.281575      212.694868      337.484021      343.698882      350.199369      305.950183      286.044240      183.806547      100.304285       95.768267       90.777397       65.112212      105.024318      111.391874       56.996492       61.129850      162.051504      248.713937      294.174401      372.018241      393.344649      436.253507      464.129832      443.214170      431.717900      411.153517      397.104196      364.039019      423.293036      471.575357      422.233894      251.807989      186.345838      142.355372       74.035944       61.822861       18.171013      -10.000000      -10.000000      -10.000000      -10.000000      -10.000000      -10.000000
55.996818       57.885116       51.018347       49.447563       51.420225       52.544282       53.221350       52.078588       53.142886       53.714415       49.668978       39.561372       32.083536       31.917615       26.244706       26.826709       33.616329       39.977418       42.624674       48.156690       50.330651       50.350254       52.349096       55.766838       55.052543       54.303632       51.609669       54.590120       58.052735       63.130513       83.321266      103.252273      123.654646      154.831083      161.584255      165.151936      171.414614      179.896568      188.655891      196.997203      200.301912      201.186575      224.219148      272.149273      429.309459      719.112930      889.796089      972.351410     1013.537209     1037.153270     1076.043968     1050.171444     1075.433430     1142.936871     1184.839554     1195.577542     1201.817483     1201.382527     1202.492054     1206.675716     1207.534807     1191.968057     1090.319203     1112.679785     1129.461786     1128.714641     1119.080683     1275.692576     1747.894919     2217.875916     2247.343014     2217.619801     2205.519420     2210.998993     2241.015844     2306.183832     2404.541957     2403.184832     2389.314121     2407.298774     2478.580119     2409.236265     2594.610634     2595.774205     2603.277785     2607.032901     2589.130252     2605.452839     2623.976974     2611.596739     2576.903199     2594.190259     2558.338189     2596.752681     2537.650762     2478.702722     2410.654461     2264.749131     2080.594945     1815.192423      930.867878     1623.873387     2245.132037     2790.684756     3320.285186     3778.870177     3859.168702     3948.478865     3998.230657     4019.036806     4050.140844     4077.421457     4096.399245     4088.932019     4033.415882     3768.222296     3632.459206     3721.438407     4209.327962     4165.615954     3348.900918     3501.649091     3541.767855     3551.390451     3557.299503     3560.101207     3525.983248     3445.654485     3392.651234     3254.963472     3137.673828     2992.333292     2822.538810     2530.115368     2090.843018     1576.078151      752.307884      193.050742      163.375387       41.928840       96.077911        5.805240        5.000000       80.462839      181.132967      303.076052      306.696971      330.371558      348.607983      321.071806      242.056298      170.489430       84.762605       73.932749       51.340349       68.588096      108.093922      114.570713      141.826803      178.327120      212.031642      259.170289      332.194365      346.361913      391.969573      431.555057      431.567665      404.315816      370.443215      342.643090      319.195391      337.717335      428.143893      497.948375      389.093565       15.782581      -10.000000      -10.000000      -10.000000      -10.000000      -10.000000      -10.000000      -10.000000      -10.000000      -10.000000       53.953885
58.754740       53.469437       56.203836       51.946061       52.979918       53.536270       54.163636       54.130126       51.979395       53.410102       50.929324       44.714309       39.518066       31.854785       26.560818       22.711854       33.100059       38.421708       40.928443       45.330328       47.830426       50.001499       50.890944       53.950056       53.745269       53.595269       53.338100       51.639588       68.696617       80.457437       76.095709      100.734360      129.233224      130.735651      134.486206      139.874549      148.511006      158.396345      168.379501      177.382784      182.893809      187.113001      195.686976      190.476137      261.421189      623.168408      796.746614      864.323781      906.072705      955.422729      976.420654     1000.609169      977.316978     1027.299035     1045.721079     1047.600692     1085.237803     1124.345339     1141.069459     1154.158668     1091.329388     1047.949195     1056.992807     1028.938114     1013.029610      959.929533      786.642466      722.940422     1026.964141     1731.434941     1955.506835     1872.276520     1899.022890     1888.760466     1947.185553     2008.381267     2090.975678     2170.180647     2175.614094     2191.464505     2287.463985     2321.380162     2392.123335     2389.194631     2384.813992     2426.866247     2411.269986     2513.621328     2383.777424     2465.220576     2431.327843     2465.138321     2506.869962     2518.764303     2492.554639     2386.239900     2325.352059     2175.646350     1864.996425     1570.197320      724.259046     1175.133436     2163.795951     2779.827246     3345.459017     3681.524740     3824.240103     3912.047020     3981.503251     4010.359001     4034.126060     4056.393793     4077.206568     4089.304619     3804.312511     3804.796757     3786.912002     3371.926734     4150.587613     3951.800872     3365.705439     3587.873853     3577.120973     3556.370522     3538.564602     3512.712496     3464.629722     3406.230017     3396.759950     3311.693190     3167.436331     2885.519009     2599.682471     2240.923335     1618.223689      899.278055      188.438496       95.282447       72.128292       77.169043       42.107436       95.071881       68.709428       98.668372      179.716269      306.439358      289.917510      315.123674      258.778456      306.911864      235.328054      197.946816       89.975602       41.314508       44.927153       30.834417       52.134359      119.887443      148.675950      160.322640      175.995694      226.347536      269.502138      308.475378      372.872170      406.916522      409.754275      376.415885      325.583929      301.182668      273.046452      312.439528      432.243586      437.661018      326.260764      -10.000000      -10.000000      -10.000000      -10.000000      -10.000000      -10.000000      -10.000000      -10.000000       21.102955      129.984915      271.046848
58.567694       59.232394       56.618186       55.329400       55.944264       54.721990       54.310429       54.652008       52.370725       50.351675       52.847891       49.290012       43.092984       38.690819       31.339564       28.225124       25.458530       34.858774       37.842167       42.655757       45.128427       48.106858       50.328854       51.191346       51.656373       51.681805       55.987728       60.605518       57.829682       63.542962       87.399155      109.238399      102.527788      104.450683      107.557432      113.795508      125.585409      136.615594      146.690991      155.137752      160.568204      162.839661      161.261437      154.718037      186.006314      394.493959      540.867637      620.942851      741.321576      799.584452      798.371791      791.387641      737.052453      741.877995      761.834014      792.158225      850.152950      935.378528      931.633356      976.936910      939.090901      921.863050      936.495583      912.446281      876.849753      812.790606      668.446413      431.267081      487.139689      835.591745     1466.106450     1516.390181     1506.742392     1541.883873     1616.346872     1684.885591     1784.189568     1893.281702     1875.070947     1833.872057     1872.954198     1957.799800     2097.846613     2099.877426     2085.161091     2152.805940     2203.840144     2302.825149     2324.288712     2384.479736     2278.695715     2401.003535     2422.518519     2448.699713     2413.366828     2309.038898     2162.907690     2079.245448     1771.419955     1187.859269     1017.077859     1129.983631     1671.756210     2920.923548     3456.403008     3642.317484     3807.064962     3889.438579     3976.785695     4008.584450     4018.720052     4026.842310     4032.664154     4004.823703     3792.704470     3800.655153     3707.869493     3147.041547     4008.469496     3793.253503     3582.004410     3569.785125     3569.653209     3546.112249     3518.009037     3481.846753     3436.212860     3402.443172     3380.981840     3258.473170     3117.981370     2870.227799     2197.729267     1998.894534     1475.468417      619.328206      201.893968       65.701583      -10.000000      -10.000000      -10.000000       52.816366      100.954764      107.405084      168.077064      271.940869      283.814859      204.268786      261.886139      280.386262      208.283881      189.092070       98.599245       51.644622       54.266797       43.934428       36.168710       53.502491      122.894763      128.249653      143.212643      173.037717      233.665840      275.075070      315.673913      376.416053      383.163890      351.119081      284.924247      286.464737      245.616412      273.097658      349.612400      481.984977      394.681084       57.264137      -10.000000      -10.000000      -10.000000      -10.000000      -10.000000       39.958562      166.695353      159.374721      230.361320      325.573468
54.200462       55.751486       56.333330       56.967392       56.236579       55.003809       54.080387       55.530004       54.242347       50.857679       50.800781       52.884641       47.619570       42.132073       33.755481       35.808854       33.073419       30.400658       34.835493       38.837304       41.219346       45.342955       47.234820       49.341103       51.473002       56.024028       56.036106       52.204257       52.447612       83.182505      105.272758      112.995042       91.068266       91.202134       93.637680       97.218007      107.014827      117.058149      126.349737      134.787782      139.803493      140.242808      136.877384      134.752145      146.596531      189.604694      288.447323      424.954796      524.876784      575.981878      600.133195      600.573299      597.926750      500.842333      532.808023      546.169592      602.538932      685.009887      692.179664      665.602234      654.758216      689.139879      719.893837      732.336777      694.443841      562.646259      462.621917      376.829953      372.795175      453.593499      849.528087      990.638626     1024.151445     1085.629871     1248.536819     1268.304947     1299.362528     1359.774014     1466.852059     1338.722990     1445.700429     1543.813409     1653.304432     1740.132762     1851.549939     1817.161370     1985.198155     2022.425560     2090.520909     2153.807210     2137.703101     2205.630485     2281.142537     2309.017615     2220.304754     2214.329036     1983.693278     1966.281954     1626.274282     1048.755726      875.144563     1191.311302     1756.799013     3266.351755     3429.632085     3610.126449     3789.997971     3861.775616     3965.370552     4010.823838     4002.092551     3999.854581     3997.414934     3943.709287     3745.661373     3756.076256     3676.640654     2977.141567     4909.258752     3174.984859     3394.265623     3547.171835     3558.368366     3532.280237     3501.151689     3463.768488     3421.071990     3399.201495     3297.364900     3155.291694     2841.465321     2695.799703     2170.074922     1476.535566      606.047622      346.097474      199.756042       91.756253      -10.000000      -10.000000      -10.000000      -10.000000       45.485122      105.581562      124.545389      179.481515      208.672932      164.503604      241.040904      212.979831      248.148725      180.499578      197.565123       72.787570       53.088014       49.926038       50.163650       46.650073       94.611188       92.373366      109.061208      141.727206      187.642032      247.161411      282.948676      339.050120      341.055481      291.188072      275.683820      273.965142      249.102991      258.264145      301.525138      490.424424      464.898663      289.638744       49.423798        5.000000        5.000000       61.735034       94.450867      236.403281      293.550576      286.806384      293.067421      295.687377
51.982106       54.153762       55.237215       55.650812       55.815897       56.096621       53.930355       51.539759       50.769460       51.836008       49.516057       54.984153       52.282150       46.392420       42.452127       41.142186       39.822305       37.703839       34.553615       35.349373       39.256963       43.403982       48.928684       62.190901       70.193396       72.186386       73.711678       78.464113       88.217195       91.084559       83.651990       80.823694       81.347064       83.964608       86.737592       90.429402       96.300626      101.485640      108.700361      118.145598      123.539767      123.910673      121.344103      121.416796      132.129165      159.513879      206.712528      309.264044      382.603046      393.005910      393.722051      403.040722      395.128746      354.750783      366.768449      384.154765      396.183767      409.786800      416.787283      402.754932      413.974579      427.507832      457.235970      468.107861      490.353987      388.426448      399.210912      355.546684      325.012060      311.437228      356.217463      532.872250      610.230790      627.557896      696.216447      730.216402      646.481760      664.122375      751.322376      801.560037      835.258928     1025.877049      983.412169     1181.286797     1408.300158     1438.874269     1503.061687     1688.681510     1804.295667     1869.628377     1865.684163     2035.203336     2049.174516     2215.361024     2197.076012     2195.239051     2045.365360     1793.127268     1549.057770     1284.657303     1393.325252     1528.065471     2045.306842     2915.900504     3279.106579     3579.381311     3725.164711     3824.711591     3884.453081     3940.833495     3921.676130     3969.964294     4013.119560     4000.923657     3593.535465     3643.101544     3603.637817     4352.280287     4612.901288     3388.777758     3525.025559     3583.300395     3549.697666     3519.275242     3489.091801     3455.294046     3417.052764     3389.690130     3230.145544     3026.703419     2707.016626     2375.869562     1916.365579     1451.866909      436.104134      182.553235      103.852216       64.097864      -10.000000      -10.000000      -10.000000      -10.000000      -10.000000       23.414127       89.651566      157.148132      200.324679      138.692472      139.312017      181.717950      260.140999      188.674833      203.514880      177.762908       81.040021       78.855125       49.559226       45.400380       59.000431       89.233489       96.856789      132.653031      167.995292      192.188862      235.787337      313.004963      315.697672      283.278569      255.039698      240.760885      235.823114      229.106918      263.670410      398.222202      357.138199      195.728441      108.058934      105.363579      186.837746      236.727068      259.737843      289.983522      289.568752      261.394594      223.505859      152.070039
50.455107       51.363222       51.831813       53.075300       55.200787       55.512303       54.838444       53.455769       54.581621       54.169482       55.608569       55.470994       53.895904       50.322328       47.767834       45.407785       45.436217       46.232304       46.487871       47.920745       55.075653       72.916101       84.957069       65.543304       59.058237       55.311941       59.427362       69.259151       69.906269       69.673634       69.510595       69.914757       71.950988       76.140660       80.106697       84.230409       88.204130       91.355968       98.338130      106.988874      112.275610      112.045515      110.359166      111.210030      120.498662      144.318421      181.721584      230.503765      276.347892      301.642100      315.112713      323.187720      318.600900      297.216046      305.215503      327.915012      345.127294      354.418006      358.387517      358.633257      361.430777      367.752624      368.157622      357.637179      355.257609      352.567936      350.530918      325.610749      300.632723      296.439668      328.427288      390.948288      429.718856      434.663146      344.789585      315.461016      291.915069      314.787240      366.258699      392.672334      375.223735      367.225697      474.975840      627.982952      941.749891     1164.255652     1171.054482     1240.101417     1348.521991     1441.622599     1496.486128     1835.471406     1879.498284     1988.146080     2027.419185     2041.790809     2003.536977     1750.210549     1511.665255     1608.945931     1571.335038     1480.750585     1815.368033     2355.682239     2980.176897     3487.725673     3698.532292     3806.878616     3838.644274     3842.509101     3853.555626     3881.748549     3925.154053     3841.996321     3600.631828     3612.315444     3613.867553     4884.668579     4360.909809     3413.133112     3495.905421     3548.686223     3528.055394     3503.760947     3479.265535     3452.786885     3425.099283     3406.000610     3259.572965     3049.995066     2652.731088     2025.730831     1525.089176      987.410512      217.474946      140.768294       63.623008        5.000000      -10.000000      -10.000000      -10.000000      -10.000000      -10.000000      -10.000000       65.822969      114.992052      119.441773      109.493607       94.941899      132.481430      214.730817      188.936051      171.083530      194.434990      147.968496      113.475650       45.345404       46.234061       68.066319       73.390111       91.046781      110.108912      150.033071      174.620016      246.144954      302.071987      290.826987      255.889834      244.061103      221.023092      201.539163      195.746020      202.338665      253.212260      219.789768      187.971973      108.927601      186.734649      285.272749      288.612937      299.553081      285.218723      259.690418      239.717107      194.495638      153.937476
