-10.000000      -10.000000      -10.000000      -10.000000      -10.000000       39.161530       68.915360       70.342392       97.579405     1294.424455     1335.390854     1619.470741     2021.821265     2211.090057     2428.711768     2614.946715     2790.217761     2927.680014     3037.849312     3109.085607     3240.157786     3408.669775     3422.123248     3204.200088     3326.186462     3033.289086     3062.101032     3113.513986     3223.885860     3285.061379     3178.576951     3191.607649     3186.437053     3210.126942     3342.283710     3337.292374     2500.167689     2904.779823     3013.211842     3172.995390     3264.408042     3194.208913     2978.156313     3207.033915     3218.058736     3220.940139     3203.941976     2823.901193     2569.365372     2295.001773     1604.823520     1316.743748     1464.658796     1833.335070     1592.185904     1636.994280     1837.359342     2025.955146     2179.351093     2076.426172     2032.576340     1935.958734      806.155580      625.371317     2104.132281     3134.283461     3192.651251     3333.841226     3541.015383     3204.272191     2536.789010     1268.481930     3427.099896     3905.316245     3891.368301     3571.371296     2737.854769     2882.655566     2696.569861     3727.486925     3481.730191     3435.461467     1587.354052      769.277296      699.158581      834.038617      911.234601     1011.421724      545.090515       47.770275      -10.000000      -10.000000      -10.000000      -10.000000      -10.000000      -10.000000      -10.000000      -10.000000      -10.000000       32.464973      290.795379      282.636999      146.235869      132.188327      214.774162       60.161015       79.216695      267.312829      465.467419      411.172741      397.808276      338.086447      344.389096      298.146016      257.037101      172.606316      273.418494       50.294487      -10.000000      -10.000000      -10.000000      -10.000000      -10.000000      -10.000000      -10.000000      -10.000000      -10.000000      -10.000000      -10.000000      -10.000000
-10.000000      -10.000000      -10.000000      -10.000000      -10.000000      -10.000000      127.133863      273.067737      553.016775     1499.152521     1641.601247     1839.212907     2360.350196     2329.125535     2519.094139     2713.192797     2973.064706     3121.457171     3195.155688     3182.499164     3255.023572     3400.320662     3368.809509     3409.636463     3512.684672     3349.390575     3242.024538     3389.852950     3399.472097     3403.722984     3409.748861     3411.047024     3401.287424     3413.334252     3432.417123     3351.854660     3163.142236     2931.417008     3055.966168     3422.147193     3409.636867     3390.495960     3278.530849     3236.249442     3315.231383     3231.308318     3196.340741     2790.738608     2516.827779     2011.070070     1579.247221     1644.910475     1194.820930     1370.087858     1707.781284     1812.372863     1944.747655     2372.086216     2533.003288     2278.904084     2108.207590     2213.066323     1121.999942      739.001913     2325.069086     3389.843372     3383.337041     3570.828562     3795.149454     3870.820638     3412.668837     1742.953259     3627.310076     3824.408404     3991.109573     4004.115347     2504.586781     2676.441899     3359.861735     3610.091170     4046.324782     3480.617708     1520.006264      713.197406      805.907688     1209.615721     1475.854270     1162.797494      188.634988       72.970184       16.366328      -10.000000      -10.000000      -10.000000      -10.000000      -10.000000      -10.000000      -10.000000       62.687593      180.207931      266.932747      113.926286       92.747328       30.240943       69.167672       53.001029      102.092137      343.999303      466.014210      446.152983      365.710657      333.102920      345.796601      343.883366      345.790424      258.271930       50.647972       27.289164      -10.000000      -10.000000      -10.000000      -10.000000      -10.000000      -10.000000      -10.000000      -10.000000      -10.000000      -10.000000      -10.000000      -10.000000
-10.000000      -10.000000      -10.000000      -10.000000      -10.000000      -10.000000       31.155767       86.705517      711.639249     1737.077623     1982.320777     2205.866292     2549.235090     2539.641264     2701.864705     2847.378155     3029.479974     3201.354020     3296.883700     3340.604021     3366.048141     3387.185655     3405.420448     3488.009616     3526.700418     3502.725166     3468.727089     3486.699618     3460.462984     3467.973230     3476.911139     3496.058534     3472.711490     3473.741169     3506.020959     3484.300614     3427.293508     3426.458047     3572.279217     3591.826843     3555.574542     3437.523117     3394.699921     3353.367906     3319.012596     3225.501463     3052.929987     2946.190265     2625.960907     2041.449384     1759.706201     1723.081795     1771.783173     1157.935629     1594.412082     1666.786861     2225.400052     2480.661458     2681.657110     2667.544656     2677.269343     2402.834439     1192.394274     1290.422850     2240.726508     3614.291362     3665.857400     3922.425973     4013.622552     4093.643219     4041.357556     3789.706445     3964.390033     4048.516915     3917.250535     3596.589196     2806.570540     2692.713959     3505.955301     3522.202581     4011.872503     3265.616637     1020.120541      879.620465     1243.299590     1883.745610     2153.080177     1176.369998      118.956254       56.432033      114.183354      -10.000000      -10.000000      -10.000000      -10.000000      -10.000000      -10.000000       78.790506       99.585427      147.246580      246.987925       94.320732       60.361433       33.920099       48.959232       83.579017      252.095885      454.174642      458.639465      436.023021      420.674999      355.718798      318.251528      358.540362      414.179254      357.424617      -10.000000      -10.000000      -10.000000      -10.000000      -10.000000      -10.000000      -10.000000      -10.000000      -10.000000      -10.000000      -10.000000      -10.000000      -10.000000      -10.000000
-10.000000      -10.000000      -10.000000      -10.000000      -10.000000      -10.000000       33.833612       50.785310      557.562870     1830.167023     2258.110667     2430.899424     2631.706936     2825.605686     3016.004911     3056.679988     3197.814391     3330.045809     2839.083121     3426.814499     3448.830907     3422.081187     3505.795382     3597.548600     3611.020694     3602.934859     3620.299641     3564.588413     3507.203686     3521.955784     3540.724002     3547.542533     3527.154042     3528.115921     3548.842180     3560.714019     3619.898092     3588.342390     3609.417391     3520.830828     3582.719456     3569.566159     3450.114806     3469.355990     3019.203683     3160.921710     3146.634236     2791.300023     2780.628380     2249.015316     1836.481839     1336.319740     1110.050185     1861.527293     1594.717181     1861.231409     2127.627021     2028.903709     2589.294392     2564.748598     2614.944667     2200.282419     1166.908462     1541.406867     3284.167787     3630.115189     3886.363340     4188.834099     4214.763695     4203.775447     4084.421396     4152.270802     4091.472913     4166.121223     3628.677853     3511.933234     3237.379322     3468.437490     3300.213391     3771.695792     3925.839318     3348.974795     1084.213275     1176.382227     1730.068280     2522.075687     2165.966579     1870.541148      275.948707      242.533559      -10.000000      -10.000000      -10.000000      -10.000000      -10.000000      -10.000000      -10.000000      117.780614       93.548514       59.882075      226.013782       69.047209       39.786956       46.486203       72.327195      141.452287      193.250482      443.839734      435.637064      392.874615      382.458647      334.953480      269.565742      283.007279      321.880743      264.774204      -10.000000      -10.000000      -10.000000      -10.000000      -10.000000      -10.000000      -10.000000      -10.000000      -10.000000      -10.000000      -10.000000      -10.000000      -10.000000      -10.000000
-10.000000      -10.000000      -10.000000      -10.000000      -10.000000      -10.000000       20.734898       52.824646      711.129976     2192.926271     2579.918301     2628.980134     2789.604222     2986.465744     3170.986278     3281.139671     3410.895147     3417.764786     3471.160972     3500.924951     3565.759496     3550.963664     3621.924739     3664.199619     3656.041723     3626.568165     3676.439311     3640.831398     3573.492460     3582.004206     3569.029609     3562.879652     3558.795063     3564.167523     3575.051232     3605.207303     3671.643966     3664.243073     3658.173901     3660.655685     3575.644599     3578.860728     3528.361505     3508.783479     3483.259072     3400.468392     3298.094333     3220.471510     2464.349104     2357.222377     1721.435749     1166.865124     1527.726738     1406.611793     1217.883008     2036.175546     2216.869782     2175.814443     2406.258409     2004.136015     2134.744648     1451.066452     1265.668903     2160.194060     3559.846459     3802.909118     3994.230482     4183.540862     4219.260532     4210.931425     4206.048759     4212.187249     4243.882583     4174.748261     3780.600514     3621.974429     3508.714981     3300.712872     3579.658360     3917.642957     3803.445052     2898.381393     1705.691076     1812.421202     2378.103908     3052.643431      996.384289      412.231941      104.183938        5.000000      -10.000000      -10.000000      -10.000000      -10.000000      -10.000000      -10.000000      -10.000000      -10.000000       12.199360      121.386916      192.183022       55.691763       66.674764       85.390701      122.076735      146.742644      277.477420      440.372239      435.591029      388.458462      399.473334      289.054087      275.693867      259.900997      288.321723      201.289600      -10.000000      -10.000000      -10.000000      -10.000000      -10.000000      -10.000000      -10.000000      -10.000000      -10.000000      -10.000000      -10.000000      -10.000000      -10.000000      -10.000000
-10.000000      -10.000000      -10.000000      -10.000000      -10.000000      -10.000000      -10.000000       45.261402      321.598649     1770.797357     2787.013886     2962.265027     3025.368785     3116.394694     3211.044726     3382.224039     3403.020533     3536.193876     3587.292400     3542.855239     3596.192341     3623.559715     3691.992681     3709.529640     3697.452338     3681.541053     3668.923442     3676.622534     3642.547939     3624.956624     3609.487722     3591.586724     3583.433575     3584.549230     3593.067291     3650.388127     3714.687677     3703.775341     3703.792537     3659.937421     3629.524379     3590.959147     3591.359579     3432.765167     3417.858897     3415.481137     3300.921297     2829.610266     2701.265487     2249.997785     1643.256646     1645.629279     1886.152575     1457.992239     1575.989425     2270.150033     2420.693996     2738.459252     2657.109953     1894.216650     2544.095891     1668.349155     1365.372615     2172.067887     3804.456028     3921.343058     4104.988114     4232.403363     4267.557733     4249.338060     4209.205592     4200.611174     4218.261056     3775.325428     3673.888782     3906.530350     3741.454236     3141.777503     3774.866587     3939.633533     3926.523884     3763.640447     1892.877197     1853.916760     3414.240391     2957.051611     1108.929633      190.255641       41.581546       21.590241      -10.000000      -10.000000      -10.000000      101.504079       48.491651      -10.000000      -10.000000      -10.000000      105.984909       79.533722       54.102842       66.509517       96.787337      111.125251      170.596096      210.765208      349.847996      445.010328      444.178268      413.361167      417.960798      272.904144      251.675800      256.640437      299.238029      276.341625      -10.000000      -10.000000      -10.000000      -10.000000      -10.000000      -10.000000      -10.000000      -10.000000      -10.000000      -10.000000      -10.000000      -10.000000      -10.000000      -10.000000
-10.000000      -10.000000      -10.000000      -10.000000      -10.000000      -10.000000      -10.000000       32.267786      144.765492     1393.541254     2645.660948     3135.463603     3126.627017     3225.345721     3361.869669     3412.774493     3432.145698     3597.337296     3557.988991     3641.039650     3616.297168     3622.535850     3654.762180     3647.860717     3681.125180     3652.704868     3638.949592     3652.847562     3657.130975     3661.584839     3657.365519     3643.697017     3631.732891     3621.609189     3631.881508     3688.285859     3739.836663     3719.419691     3699.300337     3652.669359     3635.387734     3600.039783     3418.382273     3406.230637     3066.987968     2936.111881     2969.438177     2466.588096     2580.692640     2160.813533     1778.924910     1446.746569     1684.756621     1818.039739     1879.558152     2482.327836     1354.292919     3169.946899     3179.235341     2758.194860     2915.041913     1682.776417     1400.339632     2761.190627     3911.793947     4052.252936     4281.027495     4127.024804     4333.569765     4246.614843     4194.043881     4167.479891     3930.443347     4173.184570     3121.301166     4454.239211     3106.148733     3719.204187     3913.961061     3975.520691     3928.033443     4011.567779     4025.179077     4075.771884     3684.613921     3468.096303     1594.401437      188.516828      120.563651      -10.000000      -10.000000      -10.000000      -10.000000      155.509693      136.883601      114.819037       76.620891      103.903444       74.997207       56.736872       40.228643       98.534763      113.810182      151.203516      207.403106      329.799026      377.924623      412.176060      416.866554      414.174058      354.234877      294.448762      256.821556      271.021174      362.940553      299.741738      -10.000000      -10.000000      -10.000000      -10.000000      -10.000000      -10.000000      -10.000000      -10.000000      -10.000000      -10.000000      -10.000000      -10.000000      -10.000000      -10.000000
-10.000000      -10.000000      -10.000000      -10.000000      -10.000000      -10.000000      -10.000000       34.201364      105.703611      797.320945     2594.443795     3306.977275     3270.507182     3247.691741     3451.762763     3565.835526     3591.317700     3591.595041     3600.002769     3629.971263     3638.954837     3650.535566     3671.255497     3670.366024     3660.189310     3647.036731     3662.453615     3677.489864     3683.340880     3687.897881     3695.049352     3695.375320     3693.250917     3689.449167     3683.620342     3681.229360     3725.158301     3664.602647     3654.169607     3629.895489     3558.314680     3592.756673     3378.949669     3139.327507     2682.944544     2565.865911     2592.552664     2407.809463     2196.078602     1843.198679     1786.054130     1480.279235     2039.435394     1810.375987     2195.248336     2590.402461     3187.000769     3053.807230     3267.429310     2448.839701     2674.640264     1632.782535     2096.622103     3471.190473     4094.000188     4264.873409     4282.962611     4321.027392     4241.511598     4202.848683     4143.789377     4354.244712     4184.269606     3147.630254     3336.181944     3481.926629     3560.502280     3799.644444     3925.347371     3998.277476     3983.715440     4076.419148     4166.137769     4175.278326     3816.883724     3638.605033     1001.405952      120.295520       83.198441       74.191961      -10.000000      -10.000000       62.336065      200.230104       71.794156      243.051715      153.059002      165.784590      150.171262      115.180799       91.035199      168.847219      238.643405      242.728205      268.853584      336.985639      390.176734      393.092513      384.410338      360.061792      296.223213      327.455276      282.769640      250.837951      339.376679      395.011632      -10.000000      -10.000000      -10.000000      -10.000000      -10.000000      -10.000000      -10.000000      -10.000000      -10.000000      -10.000000      -10.000000      -10.000000      -10.000000      -10.000000
-10.000000      -10.000000      -10.000000      -10.000000      -10.000000      -10.000000      -10.000000       27.993739       51.659582      552.627427     2569.276735     3315.823231     3383.645776     3305.814324     3423.619411     3549.788474     3574.478027     3614.515294     3627.674649     3644.172682     3659.893364     3670.708644     3680.479988     3693.522240     3691.185642     3689.765165     3696.863323     3689.592910     3683.813070     3668.327311     3695.500399     3696.878017     3688.997605     3705.713295     3704.022965     3698.386519     3686.297758     3709.147945     3681.952311     3621.195595     2867.008421     2986.239926     2835.019985     3013.054697     2875.598730     2598.628987     2357.728998     2254.040497     1944.664288     1906.913913     1933.731864     1473.950029     2101.178874     2408.150992     2473.773531     2544.379184     3124.792767     3134.446332     3346.202576     3721.960075     1932.872397     1392.940423     3477.137835     4124.026368     4207.380551     4290.622113     4255.231503     4291.073946     4317.324026     4379.910240     4264.555970     4373.776501     4124.708266     3489.405704     4219.742454     2316.257667     3972.225880     4094.157245     3905.872596     3944.417811     3996.530063     4120.341257     4088.131923     2599.785312     3539.829588     2792.434808     1547.262582      296.761096      104.903378       84.433482       67.472110       84.029462      271.333812      142.822078      107.938639      251.701881      252.727808      190.655570      179.175238      183.624736      165.215806      161.146607      228.156688      297.418756      340.454876      367.381690      380.351953      365.293789      375.099546      384.623206      282.728740      284.893094      275.665886      279.078961      312.809583      326.774020      345.367469      -10.000000      -10.000000      -10.000000      -10.000000      -10.000000      -10.000000      -10.000000      -10.000000      -10.000000      -10.000000      -10.000000      -10.000000      -10.000000
-10.000000      -10.000000      -10.000000      -10.000000      -10.000000      -10.000000      -10.000000       15.144626       41.655608      978.408954     2645.452708     3162.252221     3399.012514     3501.586261     3519.063920     3613.115197     3599.210404     3634.690185     3655.449624     3661.724583     3682.493001     3781.235473     3702.405326     3703.270609     3750.087839     3702.830988     3701.091876     3699.776970     3704.346531     3713.976028     3720.470654     3718.410308     3717.708997     3722.579556     3723.864988     3717.205835     3699.492894     3696.071482     3689.802100     3219.684587     3101.805406     2779.389212     2647.412661     2738.830530     2721.730597     2556.027652     2214.034479     2168.433246     2196.803098     1998.985574     2230.858169     2428.679398     2277.150951     2791.440217     1694.111703     3069.195536     3199.926284     3251.337893     3634.337926     3769.652440     1439.937342     2012.341065     4015.528924     4132.196663     4237.862772     4234.761968     4249.442383     4252.554144     4253.880092     4251.501465     4129.195803     3909.676540     3982.918284     3353.338638     3739.016069     3066.326581     3777.265884     3902.193171     3905.847100     3932.197451     4026.724375     4027.496432     3998.791785     3818.847732     3659.022504     3223.465518     1805.093287      339.547422      432.498635      310.772333      297.289964      223.139048      288.991584      155.358675      154.272657      279.324155      296.180376      228.219539      188.518780      227.260107      266.633287      286.552659      328.590200      348.468761      359.099426      369.132648      336.014215      328.861535      336.648880      351.329564      272.823156      280.292800      283.483908      328.991243      324.998669      271.665079      296.501696      195.562655      -10.000000      -10.000000      -10.000000      -10.000000      -10.000000      -10.000000      -10.000000      -10.000000      -10.000000      -10.000000      -10.000000      -10.000000
-10.000000      -10.000000      -10.000000      -10.000000      -10.000000      -10.000000      -10.000000        5.000000       35.414821      161.926628     2321.371551     3042.046812     3581.531344     3601.371953     3563.499828     3607.922639     3660.445024     3670.542762     3682.298241     3693.127333     3702.051723     3784.823853     3783.629593     3719.686647     3811.578843     3799.339295     3717.995706     3716.731955     3719.914350     3724.723933     3719.421866     3721.545723     3722.422634     3716.158386     3709.879645     3719.728029     3710.763813     3737.550760     3649.722924     3607.333118     3321.887330     2910.721324     2554.063545     2668.960853     2833.872992     2229.204726     2612.222754     2126.639757     1978.387451     2194.638787     2288.740058     2515.206484     2585.097153     3247.598696     3183.810373     3088.315208     3107.217027     3250.419289     3493.591833     3843.107153     1295.929505     3688.754978     4098.291874     4182.066151     4164.930809     4211.046168     4249.175939     4260.215948     4235.836345     4259.450978     4246.289387     4005.361711     3562.924473     1992.291129     3637.188123     3663.138263     3709.257381     3953.874719     3958.638316     3971.857204     3950.797888     3882.971289     3739.856361     3505.822778     3270.992772     2397.972807      607.155072      165.150362      102.900788      139.518948       48.363512       77.807531      275.352227      130.885073      239.995512      237.361653      194.882907      182.381195      172.135031      230.623531      280.590480      304.649209      320.057410      329.473599      329.762659      268.014886      219.238766      246.896365      333.089098      296.683540      273.528364      251.623853      280.402680      297.886854      307.942982      245.678470      269.102177      285.621325      365.182954       81.228089      -10.000000      -10.000000      -10.000000      -10.000000      -10.000000      -10.000000      -10.000000      -10.000000      -10.000000      -10.000000
-10.000000      -10.000000      -10.000000      -10.000000      -10.000000      -10.000000      -10.000000      -10.000000       20.460899       40.355492     1424.157134     2658.263840     3571.745100     3602.943136     3609.378778     3629.892378     3712.716134     3704.334400     3705.638764     3710.249517     3743.454567     3782.778082     3727.619610     3821.168779     3780.167858     3802.775427     3725.901799     3724.265932     3723.381081     3725.624152     3725.871283     3725.019638     3724.152547     3726.450050     3727.786868     3722.941594     3718.881045     3721.448499     3692.212718     3360.566926     3306.343563     3006.061832     2912.795745     2863.252568     2915.981819     2830.586789     2517.901319     2256.804909     2294.682684     2226.718148     2315.682301     2817.538142     3055.256108     3363.278228     3392.788954     3170.489210     2449.542097     3576.826004     3810.031601     3629.519043     1469.969009     3537.287096     4168.713540     4163.406586     4194.237774     4200.268161     4264.491522     4255.761088     4262.296506     4244.788445     4176.814734     3322.468518     3136.017937     4635.799529     3486.953854     3787.749988     3835.188757     3951.681039     4009.773972     3985.699903     3888.279140     3805.182642     3597.092028     3320.398511     2654.239062     1741.390455      379.472955      194.165366      187.544914      104.092786       36.693825      229.017979      281.180292      215.635412      238.810699      176.736872      148.570689      148.204262      150.110093      150.371647      183.078813      288.060463      285.216948      250.077211      191.819325      174.227624      239.529672      290.679893      289.999033      286.322477      220.075709      267.970727      271.494826      259.968527      290.602535      266.332395      227.073533      238.220991      195.405654      230.961370      -10.000000      -10.000000      -10.000000      -10.000000      -10.000000      -10.000000      -10.000000      -10.000000      -10.000000      -10.000000
-10.000000      -10.000000      -10.000000      -10.000000      -10.000000      -10.000000      -10.000000      -10.000000       13.936766       30.755834     1211.489915     2425.191386     3222.183824     3603.430388     3646.100159     3669.655735     3720.697509     3784.291382     3726.077969     3728.580797     3763.083478     3829.141759     3819.200704     3781.686866     3786.959982     3728.215062     3732.100192     3728.839473     3726.116702     3726.038642     3725.970742     3725.175891     3724.934150     3725.442414     3725.462031     3724.984256     3724.549435     3639.449777     3676.755537     3399.770674     3259.546385     3324.433172     3203.649533     3100.354508     3108.220269     2654.745264     2168.799127     2226.548653     2206.089860     1698.771113     2341.506400     3033.321129     3547.468929     3801.203621     3640.446035     3218.534541     2907.635720     3554.086772     3731.948167     3504.331765     2366.834758     3601.561576     4190.440553     4158.812179     4221.698407     4245.157377     4250.806195     4250.011415     4233.257784     4180.040598     3631.772639     3089.127403     3660.362155     3252.544130     3776.377474     3834.088790     3853.299202     3913.749118     3934.285255     3899.063255     3917.335960     3712.380562     3409.170801     2797.768038     1963.971371      724.499813      460.737060      286.112071      187.118956      212.398478       77.137507      236.086559      287.957077      271.396670      238.186345      199.632698      142.403678      178.545521      171.103567      121.366073      191.192110      291.994602      235.803173      167.983133      174.587977      225.279183      258.098489      311.296299      302.609267      236.072949      203.082524      240.224962      271.967871      262.120859      231.950607      250.675581      210.304186      217.977992      239.258352      172.939487      171.947613      -10.000000      -10.000000      -10.000000      -10.000000      -10.000000      -10.000000      -10.000000      -10.000000      -10.000000
-10.000000      -10.000000      -10.000000      -10.000000      -10.000000      -10.000000      -10.000000      -10.000000       10.517635       21.331460      320.591190     1946.793999     3094.945035     3566.914850     3690.935404     3695.532392     3730.027468     3739.176068     3738.042086     3733.883233     3741.173027     3768.455779     3828.881075     3832.803749     3721.742688     3737.600168     3727.784322     3739.342003     3319.276129     2810.000407     3111.814237     3722.194300     3716.121041     3722.490382     3721.788375     3721.372946     3711.286432     3707.301494     3701.087071     3689.017822     3706.142985     3605.674690     3732.307024     3636.444308     3175.145827     2598.977825     2428.155526     2229.105603     2030.040893     2159.364312     2391.087021     2550.569151     3527.868837     3873.767087     3833.718826     3783.459701     3834.595264     3830.806167     3853.750026     3598.478353     2145.620399     1769.761633     4181.431873     4193.994206     4219.768252     4252.204469     4258.761453     4223.657339     4207.891481     4092.162596     3627.495992     4199.262382     3478.099374     3717.709036     3894.442455     3902.931975     3974.416009     3864.893321     3862.355786     3853.367587     3828.304771     3609.401095     3284.995601     2501.012817     1436.831370      486.357210      381.994206      192.936641      213.545316      132.184734      130.129334      265.779146      282.178483      223.508866      150.371188      104.188911      138.433373      178.040843      148.158589      155.593432      218.650348      268.444526      194.612996      162.607525      166.484845      210.420377      266.665069      268.792890      253.803780      245.299893      240.038781      225.707834      244.747750      241.637630      235.226118      195.035009      178.551966      197.128341      232.789878      231.690146      170.221817      -10.000000      -10.000000      -10.000000      -10.000000      -10.000000      -10.000000      -10.000000      -10.000000      -10.000000
-10.000000      -10.000000      -10.000000      -10.000000      -10.000000      -10.000000      -10.000000      -10.000000        5.000000       14.435295       61.546561      886.710274     2204.728936     2905.773035     3707.221481     3730.520659     3748.887184     3751.303779     3758.187292     3753.888508     3730.735054     3746.615313     3752.814632     3835.822912     3770.894926     3725.404532     3249.963505     1814.725620     1352.160818      999.717224      979.268976     3174.404518     3667.211388     3691.997297     3241.555365     3713.179370     3735.656541     3350.585133     3686.746018     3725.175113     3778.511471     3794.142111     3792.944915     3078.704135     2805.581165     2638.964466     2431.535528     1408.718073     2025.292463     1937.865446     1824.047249     2218.768810     3284.023009     3825.493210     3827.778412     3792.073950     3838.398897     3850.022232     3846.668286     3854.739422     2706.239116     2339.841136     2050.499075     4199.066343     4232.635579     4265.012225     4258.656388     4261.427160     3657.887764     3373.013896     4411.070233     2597.855484     3622.808609     3868.986864     3771.769124     3835.264100     3842.158559     3841.309710     3839.659204     3832.657124     3802.868104     3574.340784     3141.678343     2331.827318     1171.533831      446.230208      436.745573      485.470786      412.535471      215.689680      288.837383      305.038410      303.989914      209.012366      153.420707      145.018374      206.845769      240.314258      190.436619      185.749526      229.676793      251.807909      198.097049      171.374468      186.579914      194.367140      213.143818      244.953568      233.245899      250.156135      228.983187      198.498027      228.369706      262.631704      262.591321      204.772576      181.288909      174.422742      164.561987      181.227723      214.035107       54.703608      -10.000000      -10.000000      -10.000000      -10.000000      -10.000000      -10.000000      -10.000000      -10.000000
-10.000000      -10.000000      -10.000000      -10.000000      -10.000000      -10.000000      -10.000000      -10.000000      -10.000000        5.000000       50.443495       63.834119     1207.839561     2682.594057     3370.220942     3642.237175     3748.404722     3750.581839     3751.052154     3808.190209     3749.748830     3738.871900     3777.488546     3740.738098     3389.567972     1025.142653     1015.317961     1385.523359     1212.639438     1835.520276     1142.786510     3675.956922     3673.292925     3719.778579     3520.542411     3598.669306     3319.628938     3650.996717     3458.782703     3735.130899     3749.418997     3726.287891     3708.492610     3710.875442     2796.387089     2731.889463     2764.485686     2172.094357     2148.168505     1667.719793     1713.688105     1964.917802     2892.913289     3844.422790     3852.709784     3833.514724     3839.330609     3844.215355     3849.762967     3855.721705     2668.662154     1336.452164     2362.224626     4205.258676     4262.064073     4272.452863     4270.099275     4276.488442     3768.610985     3727.692151     4408.566935     2466.813552     2775.359936     3813.839904     3811.649638     3817.254384     3805.481486     3808.126895     3813.256037     3801.060702     3730.103142     3280.803199     2574.112049     1508.576081      290.089110      171.409018      393.947664      457.082556      399.343147      365.005672      357.716461      314.841519      263.314218      204.479811      294.128595      249.837496      217.776144      211.531243      200.829414      195.704902      207.812371      241.872053      242.356687      221.011831      195.537207      146.015283      182.884932      226.448977      221.793371      241.292843      234.184111      235.063208      242.994629      276.871464      271.638529      251.604311      183.406532      175.267191      174.014661      136.708631      193.160194      184.645937      -10.000000      -10.000000      -10.000000      -10.000000      -10.000000      -10.000000      -10.000000      -10.000000
-10.000000      -10.000000      -10.000000      -10.000000      -10.000000      -10.000000      -10.000000      -10.000000      -10.000000        5.000000       24.469476       42.839336      322.082198     1828.528618     2790.931454     3254.148875     3595.779381     3739.381750     3753.114571     3752.776948     3789.016327     3796.714394     3090.707404     1857.916664      816.385571      967.924306      771.376714      723.699469     1823.878564     1019.784022     2734.488274     3461.093351     3069.638644     3100.136619     3450.380343     3306.028452     3162.758248     3397.285965     3271.386928     3680.384767     3691.850725     3737.022249     3611.450427     3440.019084     3591.745307     3212.980102     2782.100955     1958.039064     1946.023521     2000.235699     1613.228549     2318.683157     2339.054658     3436.694036     3802.136434     3853.714811     3842.014703     3846.433944     3858.693902     3198.703483     1149.907581     1250.549010     3045.294020     2831.941707     4234.775067     4237.851311     4261.952675     4367.185462     4301.507570     3432.259150     3464.043122     3480.010121     3756.491129     3745.114385     3723.697026     3779.461233     3772.690777     3770.842653     3802.842722     3816.689896     3564.177203     2924.707867     1436.760062      338.263818      165.192048      173.845977      133.131587      124.189175      163.360558      341.577136      298.459094      310.242640      287.087482      329.361725      239.706552      200.976126      237.379129      243.526678      222.373792      189.092855      217.437036      273.482441      272.535890      222.476687      184.066735      153.318937      192.892835      212.927312      227.368560      251.220620      284.237055      286.184516      264.599659      311.660662      344.814013      289.397285      225.894746      184.607212      181.312829      132.897820      162.698892      180.585054       67.394022      -10.000000      -10.000000      -10.000000      -10.000000      -10.000000      -10.000000      -10.000000
-10.000000      -10.000000      -10.000000      -10.000000      -10.000000      -10.000000      -10.000000      -10.000000      -10.000000      -10.000000        6.640075       77.224188      165.403434      570.107490     1894.079228     2798.204399     3156.416226     3608.928080     3749.759023     3733.770447     3411.292679     2031.816111     1620.824504      830.226387      563.254605     1128.001714     1288.709939     1683.371878     1613.988418     1827.078904     2682.729261     1708.064975      726.186719     2974.539935     3364.640018     3424.632995     3297.143298     2815.493135     3098.288100     3391.126906     3612.559479     3645.986941     3541.508022     3499.179692     3281.276834     3075.620691     2877.589553     2330.497022     1863.106176     1999.274264     1835.441275     2424.467469     2560.901813     2388.603176     3162.925128     3824.476403     3835.225450     3846.402747     2642.311328     1508.796748     1078.476852     2389.602447     2067.591504     4256.303577     4249.482667     4248.564375     4263.222412     4318.138734     4303.764578     3712.859153     3676.018087     3580.518811     3742.467976     3705.986916     3677.968713     3719.065814     3696.723186     3811.748510     3741.453842     3781.246254     3375.419420     2456.413645      304.252529      332.392189      187.478742      155.273817       82.352826       71.335748      -10.000000      377.573678      284.197787      152.841515      159.519281      213.768112      217.533294      273.921968      284.820787      243.011794      226.732018      224.478941      236.632186      295.578993      272.267370      221.124239      191.297743      191.975450      205.158346      239.830191      284.073121      305.747646      331.749497      326.390373      320.052112      332.067162      362.889036      323.584211      228.463439      193.400765      194.907147      143.673755      116.810392      205.241548      101.030114       21.568049      -10.000000      -10.000000      -10.000000      -10.000000      -10.000000      -10.000000
-10.000000      -10.000000      -10.000000      -10.000000      -10.000000      -10.000000      -10.000000      -10.000000      -10.000000      -10.000000      -10.000000      126.519722       68.148830      267.111001      584.722380     1610.382954     2739.375871     2850.418461     3596.061443     3344.218444      873.618416      815.749363     1097.337951      920.913073     1165.619190     1897.234916     2061.184015     2003.937356      921.935471      839.088166     2066.806244     1139.208796      785.650706     1860.943531     2635.749440     3266.177971     3140.059089     3195.580173     3213.811017     3252.585996     3252.060515     3351.114714     3353.627140     3349.725979     3241.680847     2843.494273     2562.902245     1997.539650     2234.903482     1855.981425     2218.811685     2337.340819     2742.382703     2471.131859     3403.879369     3809.413622     3845.319394     2906.741998     1218.780073      967.052042     2341.347454     2804.502077     3994.492577     4289.246684     4305.858361     4293.565058     4326.580184     4078.874079     4056.600462     3535.690414     3766.036904     3651.848519     3732.655850     3749.545571     3700.137875     3687.513459     3599.418283     3611.020324     3632.282196     3576.506439     2718.703018      446.293807      232.528016      193.822911      315.109947      267.481814       34.177376      -10.000000      -10.000000      -10.000000      328.266480      255.374342      143.971443      228.388221      261.648756      290.318992      253.120606      288.810533      266.315616      232.742244      239.040176      306.637641      291.181874      314.855168      226.445801      199.127131      264.982826      293.676829      281.404911      298.471429      353.467930      335.737727      324.230051      325.503443      334.377269      261.198453      193.545814      193.593971      182.535969      185.594690      123.121552      189.133034      132.782077       83.047848      -10.000000      -10.000000      -10.000000      -10.000000      -10.000000      -10.000000
-10.000000      -10.000000      -10.000000      -10.000000      -10.000000      -10.000000      -10.000000      -10.000000      -10.000000      -10.000000       32.347691      106.542836       61.533936       66.501197       79.406419      313.395015     1546.517861     2423.800483     3138.264733      881.235120     1220.870291     1670.999277     1906.402489     1999.383141     2034.603583     2066.651979     1032.953397      557.432133     2612.632962     1275.506124      395.923742      539.102596      764.462534     1828.614923     2532.131597     2780.398503     3300.818226     3289.853823     3243.847729     3248.174005     3199.833559     3159.357438     3172.424176     3223.730571     2601.607306     2746.402594     2692.434398     2247.277067     2601.430284     2027.152302     2632.941624     2962.865145     2961.122997     3044.727801     3373.867059     3857.283837     1678.384522     1513.665342     1163.419815     1045.871046     2507.693956     3766.433772     4209.028072     4238.701588     4257.084857     4268.285704     4303.514372     4275.475370     4301.245216     3782.915517     3877.128574     3653.432948     3707.501576     3712.370942     3725.145880     3633.530897     3464.354608     3433.156660     3378.337072     3323.266268     1274.211795      291.610832      227.765501      192.318650      164.277597      193.796984      193.104126      -10.000000      -10.000000      103.975418      187.906453      336.006751      305.638545      305.681564      265.485136      278.452859      238.791897      233.855834      257.720452      268.562116      264.652984      234.431193      292.900428      305.289803      298.432793      282.923682      307.010839      343.653854      345.212218      321.189602      330.930922      267.157394      270.342183      288.836710      248.244283      114.850002       87.146762      105.145114      111.121212      151.391447      137.924911      117.953054       97.163965       94.727846       21.071264      -10.000000      -10.000000      -10.000000      -10.000000      -10.000000
-10.000000      -10.000000      -10.000000      -10.000000      -10.000000      -10.000000      -10.000000      -10.000000      -10.000000      -10.000000       29.976829       68.909054       53.297841       50.241259       50.498105       98.968968      259.787227     1545.054827     2071.237719      543.835802     1560.879041     1800.541497     2033.210475     1145.057347     1758.856070     1922.225302     1351.548541     1315.748552      437.049930      259.740068      339.782208      568.843036      595.497567     1712.408136     2592.955302     3102.124660     3239.823702     3280.477027     3234.744304     3233.875804     3234.667099     2858.983033     3028.411180     2997.122797     2359.139935     2414.756337     2721.185013     2318.144746     2620.465070     2802.264813     3051.588294     3011.967622     3283.585745     3424.800285     3760.283628     2974.646485     1858.235991     1026.432879      817.432790     1890.784014     3695.754770     4143.055241     4217.515525     4241.868815     4250.275702     4270.829494     4176.853479     4236.317857     3833.808432     3775.780553     3803.304050     3748.662434     3686.054134     3635.069078     3641.532055     3544.693342     3407.406443     3296.679933     3056.995873     2884.699073     1184.215010      245.030699      335.441830      272.866937      249.960908      148.496612      118.382468      -10.000000      -10.000000      210.730866      374.888288      314.433581      323.627983      250.779895      244.864653      337.083708      241.997287      259.000350      220.736264      194.281838      195.438755      295.747949      303.004777      290.524730      285.063502      290.119655      336.712682      346.300123      338.530571      325.259643      283.051623      256.172195      263.704346      249.184374      196.005860      103.076964       67.543915       66.181363      112.597135      147.381483      104.460644       72.987421       65.351134       58.393264       52.548549      -10.000000      -10.000000      -10.000000      -10.000000      -10.000000
-10.000000      -10.000000      -10.000000      -10.000000      -10.000000      -10.000000      -10.000000      -10.000000      -10.000000      -10.000000       58.229534       50.901465       51.061606       39.869372       45.232950       51.757287      111.768286      250.061489      334.753032      533.085817     1440.409160     1763.664780     1814.149020     1862.213438     1875.608959      790.033346      586.628096      680.978858      605.174298      591.637935      461.752237      314.780390      544.146960     2471.359350     2980.635371     2890.960035     3208.842838     3301.337770     3247.557003     3206.945753     3215.591984     2903.357416     2496.014074     2383.632942     2010.960731     2262.556948     2628.269762     2474.865494     2750.632177     3082.298944     3205.116585     3197.227136     3277.287987     3365.305529     3421.637409     2418.791259     1193.571823      707.540159     1961.891385     3359.238613     3983.832031     4185.561176     4227.869488     4245.983660     4255.404899     4264.810069     4243.181829     4186.638866     3719.612780     3829.974468     3674.467515     3628.018143     3631.720383     3592.571190     3514.317332     3409.846468     3257.357488     2925.886412     2700.422601     2356.967999     1773.122964      309.508076      212.746186      197.082910       23.381594       21.771169      -10.000000      -10.000000      221.786169      338.138934      237.516601      240.393276      284.999362      226.416174      247.570846      219.760986      333.453906      308.724955      234.413897      196.412437      192.430347      254.669757      271.517103      240.783283      209.207831      256.436499      286.910022      323.140428      339.443334      335.879556      288.268352      267.520981      268.523033      182.743337      196.052517      105.433426       79.898779       82.639101      108.385855       99.644934       69.018658       61.747984       56.375270       51.445545       50.958954       49.375319       33.536597       26.207865      -10.000000      -10.000000
-10.000000      -10.000000      -10.000000      -10.000000      -10.000000      -10.000000      -10.000000      -10.000000      -10.000000       14.924327       50.216030       49.952353       49.135247       39.158603       36.048024       50.241202       86.030928      138.945866      152.326837      272.058535      644.624544      943.358802      595.699401      579.499827      525.019653      493.824402      871.398252      668.708801      627.823278      556.196173      464.719603      484.468446     1445.589949     2321.652461     2705.246973     2756.891070     2461.040890     2481.691597     2653.496030     2637.647129     2815.750534     2134.539618     2234.817081     2249.703159     1939.397003     2395.854734     2573.406435     2567.238830     3036.633506     3188.038399     3166.377692     3293.041919     3222.599895     3436.912756     2621.832514     2159.157341      843.077849     2047.218225     2710.407901     3745.831052     4162.876084     4201.521540     4232.193612     4248.268651     4251.756495     4223.551189     4093.518809     3851.176233     3774.458873     3810.902948     3480.248881     3558.893754     3597.826820     3502.604651     2917.504254     3346.628952     3037.239578     2592.473273     2038.647648     1633.893880      935.301400      435.885024      144.503383       28.844803      121.750227      222.762745      -10.000000      -10.000000       74.652194      240.384250      183.571620      213.659925      286.842380      279.714411      236.773242      274.076202      350.378279      338.742080      318.969192      251.003072      210.086974      257.633471      251.803858      244.939338      242.580792      290.017935      260.292712      304.172165      314.519226      265.505966      273.726236      274.559977      191.919181       79.381971      245.032171      142.100312       97.667135       93.378857      101.865089       64.952459       57.773385       52.760604       46.589867       44.649230       38.154599       34.160969       27.062641       13.309162      -10.000000      -10.000000
-10.000000      -10.000000      -10.000000      -10.000000      -10.000000      -10.000000      -10.000000      -10.000000      -10.000000       22.005713       42.722975       45.387471       45.874345       39.384459       35.954504       45.275396       71.092296       85.690807      115.437252      193.390566      290.464901      380.020852      451.794855      519.772342      390.792580      272.985214      326.107793     1442.873497     1773.907441     1410.802252     1808.621023     1955.257094     2386.480383     2508.815695     2327.279664     1899.360110     2230.179904     2221.973640     2198.471233     2389.785212     2091.692422     2181.200115     2125.860698     2286.900689     2402.807319     2527.251491     2603.071528     2673.426856     2724.695367     3004.229907     3189.452939     3345.738566     3362.369275     2885.304503     2386.072191     1837.466722     1395.011626     2431.416026     3364.116519     4117.794629     4154.758493     4201.391216     4231.245595     4233.161227     4292.822096     4234.626476     3968.761634     3690.682464     4032.765312     3091.116538     3431.630110     3536.498802     3593.215446     3467.471026     3385.183736     3199.808744     2967.183110     2411.760330     1692.034571     1003.916341      663.375899      553.744791      275.213536      329.023171      141.837056      -10.000000      -10.000000      207.120938       79.089909      244.087999      193.938868      205.959204      236.911149      229.105044      189.257909      322.125547      342.404475      334.282682      334.987481      295.865645      267.950454      244.483027      231.691666      192.654853      151.584178      205.063730      236.252005      276.569229      299.540341      286.359474      246.243494      275.169320      150.630440       78.127363      182.184127      141.219297      100.850060       87.357348       91.221625       79.250704       50.429620       48.502505      -10.000000       15.594533       16.400400       16.067911       20.829019       16.625893      -10.000000      -10.000000
-10.000000      -10.000000      -10.000000      -10.000000      -10.000000      -10.000000      -10.000000      -10.000000      -10.000000       25.868518       41.997525       43.470144       44.539078       39.292848       40.133723       48.010822       60.538747       71.161529       68.620439      137.098518      215.039955      332.956174      403.554914      222.532431      179.488902      224.607724     1052.772444     2129.343915     2178.384265     2176.831018     2219.099118     2266.223143     2183.261846     2158.903222     2006.774438     2244.584674     1711.579639     1761.500454     1705.230271     1446.380363     1838.726098     1645.442642     2142.100625     2417.363869     2612.552330     2628.614994     2731.917228     2724.893553     2784.253610     2980.061613     2957.091007     3045.796182     3191.454235     2002.193094     1430.984571     1722.951031     2419.790004     3138.597967     3666.098190     4070.155572     4198.713613     4204.952491     4220.781250     4232.357984     4307.997839     4171.115667     3816.035260     3933.557921     3861.061878     3681.516106     3647.749588     3581.228825     3598.387057     3449.926382     3306.930219     3054.462883     2581.722115     1995.259746     1223.647618      727.988119      664.168697      610.521150      561.024775      355.182255      -10.000000       43.919759      229.391454      295.555534      178.194313      261.865911      197.215490      180.684234      161.784445      220.700938      276.045992      226.380366      242.590999      242.637630      161.893387      135.143043      139.783205      161.850789      143.760309      154.996033      134.188382      153.988859      206.318170      249.491281      246.122094      234.656655      187.449908      169.662278       64.989707       70.888344      189.693322      113.820802       88.754366       84.864421       86.407542       69.432041       61.152171       43.847019      -10.000000      -10.000000      -10.000000      -10.000000        5.745378       15.835351      -10.000000      -10.000000
-10.000000      -10.000000      -10.000000      -10.000000      -10.000000      -10.000000      -10.000000      -10.000000       18.646708       31.841186       44.892766       42.516543       40.517973       40.176345       38.551217       48.622737       54.726274       59.205906       61.224902      120.949586      187.112725      248.708412      250.028498      181.511800      289.688039      341.717692      923.918080     2114.871698     2200.744527     2158.575581     2182.119003     2038.446529     1883.903473     1567.634593     1587.646127     1327.041212     1659.593353     1593.727190     1642.676556     1546.007251     1947.305175     1823.536960     2452.119811     2429.698832     2656.840554     2695.411601     2715.621266     2783.913432     2794.296867     2797.938398     2673.397302     2318.613405     1662.957688     2629.227023     2113.099383     1437.004523     1358.258632     3132.420880     3691.203190     4204.392506     4169.067352     4195.264278     4223.019767     4288.211819     4274.674216     3801.374221     3800.442773     4145.738256     3555.315089     3631.351418     3630.041480     3586.084947     3575.384560     3397.190382     3149.922367     2885.838415     2551.860550     1946.343463     1205.456830      661.360750      677.060131      637.562032      595.479797      541.330202      430.010711      213.917849      167.516200      197.558120      129.737007      209.507756      172.143305      183.055766      215.333784      209.220322      204.747434      157.888886      168.413708      115.813847      109.188534      123.649561      128.354273      148.712696      153.561615      153.864967      192.764848      237.634479      239.835133      252.381653      214.210360      185.469181      123.622273      137.157164       97.702968      120.133169      158.492024      126.176488      102.558003       92.908188       59.862575       54.176265       60.873790       59.649154      -10.000000      -10.000000      -10.000000      -10.000000      -10.000000      -10.000000      -10.000000      -10.000000
-10.000000      -10.000000      -10.000000      -10.000000      -10.000000      -10.000000        6.781865       23.088692       29.998911       38.180071       43.304160       38.497775       40.380241       38.571614       43.468415       46.520568       51.385011       57.230141       73.669894      118.476001      173.863676      191.354501      199.832835      239.590697      335.882933     1112.223698     1765.492749     2005.761348     2196.298942     2193.891544     2087.994972     1984.797131     1530.101016     1416.247557      997.404075     1263.817318     1219.203326     1788.146246     1643.521649     1645.945424     1951.562299     2451.032518     2638.728747     2658.595094     2696.314336     2718.197910     2756.752191     2769.020072     2767.941788     2772.843267     2791.563445     2420.510047     2403.589813     2498.615305     2385.277608     1715.193651     1176.769409     2865.816538     4041.907777     4148.234216     4166.548936     4201.999362     4296.715172     4292.279194     3594.492430     3685.484511     4184.616992     3398.395631     3683.668744     3618.786843     3613.573963     3599.997387     3450.129077     3142.441629     2749.870589     2379.442727     1901.359605     1639.935685      659.264374      454.611224      500.301962      547.544515      580.015540      561.020973      472.744821      394.579680      353.816022      246.685049      239.773321      222.546144      280.390836      276.240626      312.947453      301.897002      222.032582      186.682662      160.858274       93.490290       84.321469      164.786162      147.926499      198.373940      217.691314      214.404332      190.747903      165.022515      146.367469      135.543485      143.048074      152.750177      114.947690      123.627939      109.601734      112.212457      115.490105      108.382733       56.950015       65.099760       37.566670       49.112587       55.203316       55.257648       50.394078      -10.000000      -10.000000      -10.000000      -10.000000      -10.000000      -10.000000      -10.000000
-10.000000      -10.000000      -10.000000      -10.000000      -10.000000      -10.000000       15.684556       24.113413       32.610848       40.025192       42.259573       38.058109       41.858759       44.597504       45.498389       46.017993       51.536442       59.458599       72.731171      113.257318      141.621344      173.904730      195.367446      258.320952      391.399607      645.685617     1639.893491     2030.267048     2198.044631     2048.590966     1915.988286     1462.129301     1045.378930     1395.103341     1427.736844     1593.532157     1598.090270     1443.731285     1710.828802     1884.309666     2254.213325     2628.245155     2685.224738     2693.153743     2720.670627     2799.656801     2786.964796     2800.978392     2772.335321     2763.505079     2764.195704     2598.176469     2674.670257     2522.944822     2201.664302     1753.906915     1409.387046     2717.700166     4013.487310     4108.349184     4149.978417     4236.101159     4334.159130     3572.663402     3824.880876     4201.647506     3477.141383     3567.413949     3576.631473     3586.205162     3564.334921     3422.580730     3212.925285     3033.678768     2373.880014     1676.722003     1016.072036      472.223240      327.419718      173.392222       73.108777      176.098337      506.757710      576.973783      553.465366      514.491247      474.016923      461.326799      365.157170      314.386545      346.671612      345.876102      334.457856      335.604843      203.462805      202.157384      144.300872       98.630835      100.096110      156.516483      172.438612      115.184010      105.416301      149.498725       92.474003       39.266237       66.676430       54.175333       36.049898       52.116805       43.340352       85.652246      115.878233       99.826797      101.351129       72.908503       61.383988       50.136662      -10.000000      -10.000000       27.159075       49.393607       48.741335      -10.000000      -10.000000      -10.000000      -10.000000      -10.000000      -10.000000      -10.000000
17.892940       18.803400        5.000000      -10.000000      -10.000000      -10.000000       20.635514       34.190403       37.640722       45.755068       44.850161       49.339591       44.862862       45.046721       48.615798       50.322410       54.720324       65.740992       94.405130      105.031472      132.827835      168.016085      198.666978      269.513640      300.688996      379.896370     1478.799769     2032.830109     2114.758670     1825.395190     1543.508027     1396.502294     1460.983090     1578.162525     1280.355816     1684.419546     1810.461419     1900.461865     2074.312930     2308.330531     2614.506054     2634.837801     2679.842485     2692.736623     2714.547653     2738.460619     2774.383718     2797.753725     2760.196363     2762.077911     2796.909810     2722.354615     2678.853872     2621.899787     2292.213826     1858.167869     1307.998172     3253.950280     4049.681155     4095.046463     4205.217098     4242.409022     4267.726507     3914.424416     3581.043841     4123.522125     3199.675920     3545.467936     3580.416451     3449.229502     3400.322224     3396.927728     3185.525053     2813.040284     2006.731624      919.486890      396.964152      404.296257      258.388130      174.832360       87.002900       38.517449      185.289055      481.124765      548.302480      538.500100      522.381775      503.403979      362.691845      312.939273      348.220011      335.926444      294.792317      222.169833      177.458648      194.415013      133.854089       86.178217       32.339976      -10.000000      -10.000000      -10.000000      -10.000000      -10.000000      -10.000000      -10.000000      -10.000000      -10.000000      -10.000000      -10.000000      -10.000000      -10.000000      123.190710      151.566280       99.457941       99.322718       86.364495       53.076858      -10.000000      -10.000000      -10.000000       40.285712       19.309915      -10.000000      -10.000000      -10.000000      -10.000000      -10.000000      -10.000000      -10.000000
25.709440       31.433232       32.173455       25.453311      -10.000000      -10.000000       21.730955       35.592182       43.129028       45.016011       48.717603       45.313367       39.616816       48.358106       48.718118       52.160581       57.463850       61.918100       66.831591       66.659871      134.311565      165.783095      200.373132      226.377462      241.762765      284.967470     1091.041810     1760.239978     1847.809624     1276.184902      870.429658     1196.368818     1424.086274     1556.469144     1628.300360     1710.539122     1829.209473     2015.115264     2322.416666     2540.251497     2592.776741     2630.014184     2654.935637     2682.645921     2711.008140     2738.283596     2746.584195     2782.654846     2885.137583     2773.870712     2753.470856     2676.253723     2712.842234     2645.653213     2257.690554     1833.586969     1964.006909     3653.599702     4089.655077     4157.110517     4103.218177     4235.537452     4018.656359     3807.688416     3948.980305     3400.768857     3579.918606     3603.757937     3594.503480     3422.293603     3315.584812     3103.006206     2841.471602     2679.139146     1582.885169      374.706921      427.564424      516.322543      323.253598      138.023879       78.465822       48.699487       41.810083      180.539318      454.679918      514.954973      492.144261      458.826357      380.782816      378.633536      337.020965      330.563669      196.842213       87.875582      174.450204      187.294006       13.547414      -10.000000      -10.000000      -10.000000      -10.000000      -10.000000      -10.000000      -10.000000      -10.000000      -10.000000      -10.000000      -10.000000      -10.000000      -10.000000      -10.000000      -10.000000      -10.000000      150.173015      125.815587       96.070073       79.033849       50.327187       47.022608       37.824440      -10.000000      -10.000000      -10.000000      -10.000000      -10.000000      -10.000000      -10.000000      -10.000000      -10.000000      -10.000000
22.581600       31.096473       37.704063       44.709263       25.909730       26.849423       40.845622       49.840851       47.498329       47.073605       40.030990       37.387746       36.667039       41.854254       49.814047       54.625375       58.311912       59.627516       75.033462       88.878015       96.762467      173.110329      171.617052      202.659937      224.227979      238.480246      576.271948     1201.679175     1120.998777      978.195208     1019.830412     1140.279928     1058.094885     1086.383297     1149.330983     1583.746280     1807.414752     2038.431932     2349.275970     2492.516056     2612.051352     2574.733249     2616.913978     2649.879578     2693.549547     2715.024771     2784.623824     2789.713794     2779.353675     2793.276044     2671.641538     2608.153127     2605.407129     2583.012165     2228.870316     1553.785151     2291.049367     3810.339743     4019.090435     4101.330762     4130.462855     4070.712127     3869.739145     3761.828603     4158.836519     3460.085364     3498.608726     3600.414591     3544.963376     3395.248058     3226.542604     3026.859117     2483.210918     1336.846397      457.256715       96.305026      275.513375      386.961872      310.148892      190.663813      121.191410       69.911571       49.795540      129.052397      217.562138      408.621730      469.477852      457.342640      413.208229      399.362523      391.315865      328.301089      134.765397      106.823624      178.257202      142.372431      -10.000000      -10.000000      -10.000000      -10.000000      -10.000000      -10.000000      -10.000000      -10.000000      -10.000000       11.298580       19.925821       10.740807      -10.000000      -10.000000      -10.000000      -10.000000      -10.000000       80.700854      131.807259       96.559928       47.840317       47.873547       44.799611       31.098193      -10.000000      -10.000000      -10.000000      -10.000000      -10.000000      -10.000000      -10.000000      -10.000000      -10.000000      -10.000000
20.196870       33.364717       40.503344       43.385615       51.130139       49.609845       47.620873       49.607921       51.994034       52.356402       33.403744       26.634607       27.282140       40.799582       49.953515       52.079465       56.366568       58.662079       59.015352       62.133349       95.100027      146.389600      182.348428      196.486421      204.319502      220.609265      334.211995      851.855077     1018.895706     1095.905612     1101.424329     1152.966611     1151.444034     1196.819753     1199.666352     1195.652891     1291.868587     1440.353480     1683.682611     2394.175984     2397.888603     2413.367449     2445.353807     2607.236200     2598.233913     2654.788981     2665.077584     2678.434898     2661.712359     2666.826495     2604.388248     2599.116848     2550.473312     2418.051173     1897.125034     1388.172461     2686.386818     3785.734826     3971.294264     4031.333976     4091.363072     4078.157306     3795.496955     3754.997803     4201.477422     3432.578412     3532.948714     3592.760559     3479.427988     3319.480313     3104.814765     2724.337969     2049.114064      287.037505      130.514228       45.391030       99.281575      337.484021      350.199369      286.044240      100.304285       90.777397      105.024318       56.996492      162.051504      294.174401      393.344649      464.129832      431.717900      397.104196      423.293036      422.233894      186.345838       74.035944       18.171013      -10.000000      -10.000000      -10.000000       55.732925      206.313028      208.022124      185.967748      228.360682      279.197249      250.757149      289.017853      276.274140      248.489040      300.345874      148.210413      -10.000000      -10.000000      -10.000000       73.848476       88.355202       75.743028       52.274800       35.257243       20.435464        7.958895      -10.000000      -10.000000      -10.000000      -10.000000      -10.000000      -10.000000      -10.000000      -10.000000      -10.000000      -10.000000
26.656296       31.888421       36.730929       47.413088       55.816622       53.469437       51.946061       53.536270       54.130126       53.410102       44.714309       31.854785       22.711854       38.421708       45.330328       50.001499       53.950056       53.595269       51.639588       80.457437      100.734360      130.735651      139.874549      158.396345      177.382784      187.113001      190.476137      623.168408      864.323781      955.422729     1000.609169     1027.299035     1047.600692     1124.345339     1154.158668     1047.949195     1028.938114      959.929533      722.940422     1731.434941     1872.276520     1888.760466     2008.381267     2170.180647     2191.464505     2321.380162     2389.194631     2426.866247     2513.621328     2465.220576     2465.138321     2518.764303     2386.239900     2175.646350     1570.197320     1175.133436     2779.827246     3681.524740     3912.047020     4010.359001     4056.393793     4089.304619     3804.796757     3371.926734     3951.800872     3587.873853     3556.370522     3512.712496     3406.230017     3311.693190     2885.519009     2240.923335      899.278055       95.282447       77.169043       95.071881       98.668372      306.439358      315.123674      306.911864      197.946816       41.314508       30.834417      119.887443      160.322640      226.347536      308.475378      406.916522      376.415885      301.182668      312.439528      437.661018      -10.000000      -10.000000      -10.000000      -10.000000       21.102955      271.046848      341.481504      354.014843      340.005395      305.898801      172.871396      341.971313      413.293932      364.410856      333.920927      307.678718      287.722239      299.640462      121.411616      -10.000000      -10.000000       44.192424      135.466064       82.981495       49.209934       32.877307      -10.000000      -10.000000      -10.000000      -10.000000      -10.000000      -10.000000      -10.000000      -10.000000      -10.000000      -10.000000      -10.000000      -10.000000
29.436221       32.894320       43.795432       52.274294       51.568869       55.751486       56.967392       55.003809       55.530004       50.857679       52.884641       42.132073       35.808854       30.400658       38.837304       45.342955       49.341103       56.024028       52.204257       83.182505      112.995042       91.202134       97.218007      117.058149      134.787782      140.242808      134.752145      189.604694      424.954796      575.981878      600.573299      500.842333      546.169592      685.009887      665.602234      689.139879      732.336777      562.646259      376.829953      453.593499      990.638626     1085.629871     1268.304947     1359.774014     1338.722990     1543.813409     1740.132762     1817.161370     2022.425560     2153.807210     2205.630485     2309.017615     2214.329036     1966.281954     1048.755726     1191.311302     3266.351755     3610.126449     3861.775616     4010.823838     3999.854581     3943.709287     3756.076256     2977.141567     3174.984859     3547.171835     3532.280237     3463.768488     3399.201495     3155.291694     2695.799703     1476.535566      346.097474       91.756253      -10.000000      -10.000000      105.581562      179.481515      164.503604      212.979831      180.499578       72.787570       49.926038       46.650073       92.373366      141.727206      247.161411      339.050120      291.188072      273.965142      258.264145      490.424424      289.638744        5.000000       61.735034      236.403281      286.806384      295.687377      120.209647       90.945631      114.861466      209.482238      168.849893      150.075653       75.628316       89.441251      135.500128       98.736738      200.933753      210.459965      241.781191      100.450077      -10.000000       89.400355       78.239577       44.618109       23.064687       12.815155        5.000000      -10.000000      -10.000000      -10.000000      -10.000000      -10.000000      -10.000000      -10.000000      -10.000000      -10.000000      -10.000000      -10.000000
51.877452       45.523326       49.034247       49.004876       49.087447       51.363222       53.075300       55.512303       53.455769       54.169482       55.470994       50.322328       45.407785       46.232304       47.920745       72.916101       65.543304       55.311941       69.259151       69.673634       69.914757       76.140660       84.230409       91.355968      106.988874      112.045515      111.210030      144.318421      230.503765      301.642100      323.187720      297.216046      327.915012      354.418006      358.633257      367.752624      357.637179      352.567936      325.610749      296.439668      390.948288      434.663146      315.461016      314.787240      392.672334      367.225697      627.982952     1164.255652     1240.101417     1441.622599     1835.471406     1988.146080     2041.790809     1750.210549     1608.945931     1480.750585     2355.682239     3487.725673     3806.878616     3842.509101     3881.748549     3841.996321     3612.315444     4884.668579     3413.133112     3548.686223     3503.760947     3452.786885     3406.000610     3049.995066     2025.730831      987.410512      140.768294        5.000000      -10.000000      -10.000000      -10.000000      114.992052      109.493607      132.481430      188.936051      194.434990      113.475650       46.234061       73.390111      110.108912      174.620016      302.071987      255.889834      221.023092      195.746020      253.212260      187.971973      186.734649      288.612937      285.218723      239.717107      153.937476      152.159417       89.673743       99.673452       98.510467      120.619405      100.990561       84.305435      109.029091      123.758380      119.014662      132.704242      172.394961      186.956366      175.926630       16.098742      100.143332       48.608250       27.128208       13.250562        5.000000        6.893940      -10.000000      -10.000000      -10.000000      -10.000000      -10.000000      -10.000000      -10.000000      -10.000000      -10.000000      -10.000000      -10.000000
36.697241       47.968412       43.407321       44.680809       45.516261       48.249732       51.133735       53.938765       51.850966       53.511708       52.588428       53.191852       51.666406       51.641693       57.925268       59.041646       35.417844       29.331593       38.538227       54.394470       57.665422       65.651844       69.829464       75.683279       74.083890       54.111659       67.318471      102.304688      142.426155      188.994856      215.150694      220.558791      244.326307      265.329460      280.802349      288.688183      286.243843      274.526118      253.183710      240.999605      264.411106      249.291490      186.273552      169.563451      174.837503      175.731977      200.158854      208.816381      197.975595      327.738923     1347.492522     1589.219852     1689.282910     1601.715488     1674.384288     1968.178146     2686.894705     3515.908432     3799.789656     3820.747728     3838.902096     3803.079276     3618.119233     3428.841031     3385.929780     3493.184530     3465.867944     3439.953361     3398.307508     3070.796335     2398.891763      743.393989      175.225906       98.503456      -10.000000      -10.000000      -10.000000      -10.000000      111.819206      201.331749      208.070917       86.735352      110.990445       50.748848       37.940617      134.545699      115.845433      244.207982      214.806422      148.919691      146.988154      116.200120      139.097581      231.294984      162.818318      162.053692      186.182950      153.318896      133.675392      102.441676      137.822242      110.637593      109.690179       89.706507       93.715697       93.078053      126.568885      139.558195       65.545402      108.416466      190.841242      163.257485        5.000000       42.838129       37.785722       20.542004       11.369024        5.929829      -10.000000      -10.000000      -10.000000      -10.000000      -10.000000      -10.000000      -10.000000      -10.000000      -10.000000      -10.000000      -10.000000      -10.000000
-10.000000      -10.000000       26.567461       39.671881       45.235360       46.664017       48.571957       49.067075       50.648989       50.713753       51.498556       52.195342       53.846921       59.563601       62.652516       50.368839       30.181998       18.277665       21.189814       44.412474       48.412575       49.331254       57.589618       59.356115       54.129847       51.603110       55.632797       64.070561       80.994248      110.070729      161.971271      190.579674      195.043000      199.527006      220.361094      228.198374      228.510879      213.652027      193.828845      186.406497      192.904339      180.408292      144.751265      121.694604      116.731546      112.677508      108.070800       98.083566       98.007502      148.123494      656.419024     1071.554616     1239.308316     1579.354738     2003.789768     2743.962165     3225.877802     3594.948047     3798.262418     3801.001892     3801.248797     3749.470735     3613.426187     3405.118526     3436.457688     3441.308275     3422.744567     3402.375474     3138.543297     2716.190114     1925.093098      561.740949       59.124278      109.292490      -10.000000      -10.000000      -10.000000       23.573484      116.504703      129.385762      240.124408      108.550686       53.118350      105.785911      111.154186       79.243921       58.612950      134.043043      125.202337      104.415685      158.578021       98.298849       89.325037      181.525908      164.354874       67.799509       41.159327       48.973385       65.924719       52.525525       60.501398      102.244101       94.752078       41.743071       60.487167       77.232477      113.659946      114.835191       81.014321       46.205373      143.438141      157.812438      -10.000000      -10.000000       21.121564       20.693711       11.177701        5.000000      -10.000000      -10.000000      -10.000000      -10.000000      -10.000000      -10.000000      -10.000000      -10.000000      -10.000000      -10.000000      -10.000000      -10.000000
-10.000000      -10.000000      -10.000000      -10.000000       35.376588       45.376834       47.677587       48.476071       51.131701       50.896306       50.449906       51.171215       55.219092       55.727324       52.429394       44.086460       11.551920      -10.000000      -10.000000       33.081701       43.685554       46.534810       49.714400       50.060855       49.684465       48.527404       48.127690       49.212460       53.263841       63.972561      108.435771      133.662740      145.741129      162.164610      191.397996      200.230271      191.826496      164.629097      143.306516      131.756901      115.876318      100.750573       99.995324       96.481053       95.283475       93.282717       88.716362       80.687946       88.182911      116.470419      192.151781      286.317117      469.367970     1660.750626     2251.990251     2940.844566     3247.594588     3533.621980     3644.344132     3671.623697     3664.827032     3576.179767     3600.260299     3340.878008     3375.428977     3391.067675     3363.381880     3353.270458     2940.641840     2394.994095     1199.377379      286.532394      219.909387      115.732664      -10.000000      -10.000000      -10.000000       71.105907      105.060601       87.267684      123.828478      113.574421       84.302289       89.612341      117.541998       14.746907       49.070829       73.400083       98.656760       92.435202      103.378550       57.434768       70.484812       51.548606       33.770010       28.092795       27.194569       20.980417       20.791848       29.210314       47.799119       50.444353       62.521309       71.044823       83.498118       97.941362      115.102406      106.491776      120.978401      117.276085      134.673509      145.410573      115.263020      -10.000000       17.215375       10.631211      -10.000000      -10.000000      -10.000000      -10.000000      -10.000000      -10.000000      -10.000000      -10.000000      -10.000000      -10.000000      -10.000000      -10.000000      -10.000000      -10.000000
-10.000000      -10.000000      -10.000000      -10.000000        8.148414       27.661064       39.703335       45.601898       47.710560       48.916938       51.581986       50.515663       51.348906       50.457907       46.017558       40.189331       25.450596      -10.000000      -10.000000       29.883509       39.350406       42.371371       47.963239       49.976457       46.813056       45.201109       44.526130       44.587222       50.523007       58.317223       62.848936       71.625053       85.943848      102.145731      121.737579      101.644924       97.693258       99.721792       99.183484       97.044806       93.559421       89.522010       88.241945       87.186167       85.809086       83.496156       78.799033       73.091659       79.524850       92.961229       97.595029      118.435654      348.755886     1206.722308     2334.051521     2889.278068     3233.306107     3411.292657     3491.622869     3519.777205     3481.258562     3394.251423     3598.156884     3295.982366     3255.102914     3255.414242     3226.139366     3203.238919     2651.434935     1983.372745      548.834340      397.486895      170.119145      164.638598      -10.000000      -10.000000        5.000000       59.576950       54.501008       52.354290       61.758546       79.315952       81.574568       95.127252       50.418046       49.403432       40.804112       59.746826       58.331337       79.923196       66.493777       54.373104       53.738801       36.832202       25.810197       24.006839       27.744110       17.334644       16.547365       17.324678       24.752535       45.527401       82.772004      109.687160      116.414576      113.649294      100.534281       69.663430      149.509662      173.757702      141.919522      194.763008       35.168385      -10.000000       10.406780        6.269404      -10.000000      -10.000000      -10.000000      -10.000000      -10.000000      -10.000000      -10.000000      -10.000000      -10.000000      -10.000000      -10.000000      -10.000000      -10.000000      -10.000000
-10.000000      -10.000000      -10.000000      -10.000000      -10.000000       13.894489       18.457211       25.065492       39.257209       45.995103       50.043843       50.961583       48.550015       47.057892       44.077590       39.697324       37.189947      -10.000000      -10.000000       31.451539       35.740574       36.928228       42.895548       46.618288       43.897962       42.904793       42.756008       43.618712       48.620011       52.396047       56.233654       58.565060       61.299850       71.179886       74.758152       70.942471       68.257354       67.974460       77.289922       83.175466       84.237858       74.381721       74.864349       73.480052       71.344327       72.637572       69.944269       66.908110       67.762517       73.852317       81.052756       92.547984      145.526590      199.317196     1374.327120     2754.521090     3044.189898     3202.494947     3245.789736     3366.644426     3345.375609     3343.284260     3292.409254     3216.114964     3203.752346     3164.022403     3123.113408     2962.511165     2592.200353     1383.487019      373.989799      181.113855       26.388334      -10.000000      -10.000000      -10.000000       72.349821       75.630668       32.614477       37.649699       39.643252       53.638583       58.454786       91.823777       47.113260       43.547443       44.136180       58.421509       57.486996       50.271204       53.768134       43.731428       42.744070       35.041000       27.600708       20.911745       22.523772       19.747064       12.218161        5.000000       11.924346       19.205949       36.252963       85.813429      126.538770      110.512000      143.593817       80.442409       98.317343      121.666917      151.870026      156.191351      -10.000000      -10.000000      -10.000000      -10.000000      -10.000000      -10.000000      -10.000000      -10.000000      -10.000000      -10.000000      -10.000000      -10.000000      -10.000000      -10.000000      -10.000000      -10.000000      -10.000000      -10.000000
-10.000000      -10.000000      -10.000000      -10.000000      -10.000000      -10.000000      -10.000000      -10.000000        5.000000       27.644299       38.683293       45.261334       45.253248       46.144637       43.930849       30.415537       41.176110       29.972863       30.011013       30.022794       22.798026       34.465996       37.050594       41.544052       40.928902       40.298545       40.598534       41.163879       43.177961       47.184265       51.197822       53.570698       57.603912       62.821779       63.439151       60.926223       57.008892       55.181325       63.276523       69.315252       53.680171       12.794332       11.499981       63.702199       65.296881       62.568177       60.773746       59.017715       60.285273       62.186948       69.208720       75.018489       82.344232      104.350541     1200.974974     2507.695365     2738.752947     3060.992511     3156.766434     3127.607915     3193.093821     3269.641569     3170.588859     3142.104922     2998.484759     2872.466894     2774.761767     2622.790219     2009.950437      763.176622      308.323817      129.182355      -10.000000      -10.000000      -10.000000      -10.000000      121.854254       50.037892       67.546031       52.874625       14.243096       27.481638       22.206007       58.515234       48.696171       25.540869       45.020674       51.478613       32.069448       45.326147       45.288491       31.145224       33.196243       31.686226       32.390683       23.567387       21.580922       22.435596       14.844521      -10.000000      -10.000000      -10.000000      -10.000000       22.347676       42.059413       18.303227       18.951349       15.863231       27.681228      106.925841      115.492970       38.798639      -10.000000      -10.000000      -10.000000      -10.000000      -10.000000      -10.000000      -10.000000      -10.000000      -10.000000      -10.000000      -10.000000      -10.000000      -10.000000      -10.000000      -10.000000      -10.000000      -10.000000      -10.000000
-10.000000      -10.000000      -10.000000      -10.000000      -10.000000      -10.000000      -10.000000      -10.000000      -10.000000      -10.000000      -10.000000        5.000000       37.460821       43.202992       49.211855       44.932505       45.453794       45.931017       39.419754       35.324838       32.318317       34.956614       35.002612       36.412549       38.387299       43.546575       39.117075       37.928688       39.858623       43.355940       46.146557       48.155922       51.621308       55.518748       58.081771       50.543298       44.873916       47.975896       52.000141       58.226275       53.657012       51.707367       50.400348       52.216644       57.294734       49.624587       47.593590       47.113312       48.697789       48.483434       59.210181       61.578396       66.032364       87.575819      189.374107     1436.375663     2058.307947     2871.334310     2818.066101     2909.363494     3002.960537     3174.547716     3022.334931     2997.382797     2799.262644     2510.902834     2195.710605     2015.088163     1074.037466      228.972591      198.945797      133.939369      -10.000000      -10.000000      -10.000000      -10.000000      156.351171       55.068899       82.382495       79.206185       48.838961       22.398841       10.613371       37.176728       17.584132       42.691131       49.926923       48.656655       43.287459       41.861139       40.104510       18.518622       35.531356       29.725492       29.358172       19.705375       14.524084        7.845545       20.701446       10.697142      -10.000000      -10.000000      -10.000000      -10.000000      -10.000000      -10.000000      -10.000000      -10.000000       13.459440       33.093112       41.976965       22.256162      -10.000000      -10.000000      -10.000000      -10.000000      -10.000000      -10.000000      -10.000000      -10.000000      -10.000000      -10.000000      -10.000000      -10.000000      -10.000000      -10.000000      -10.000000      -10.000000      -10.000000      -10.000000
-10.000000      -10.000000      -10.000000      -10.000000      -10.000000      -10.000000      -10.000000      -10.000000      -10.000000      -10.000000      -10.000000      -10.000000      -10.000000      -10.000000       17.223245       39.494908       47.791183       47.421096       40.184238       37.597403       37.076210       40.361133       37.569951       39.946779       40.394507       37.772651       34.598065       34.792018       35.834159       39.623677       39.959389       43.718466       44.880685       45.219235       49.040422       49.116729       44.697907       43.730668       44.536979       46.178124       46.760094       44.730927       43.564618       44.072492       44.974611       45.884441       45.334474       41.750120       40.407442       41.053593       46.899542       52.140107       57.208478       63.592457       77.026973      240.733228     1071.509726     2032.129334     2537.770024     2662.731404     2771.736293     2743.775420     2901.447283     2777.629997     2492.171472     2184.227250     1755.927273      672.433779      249.973730       71.665712       57.979694       19.697244      170.130129      190.942501      116.226271      114.885884      104.557706      126.074680       80.355640       66.344451       49.241151       29.941211       42.575048       41.865932       38.288632       49.144005       39.001846       44.803111       48.208388        5.000000       31.895016       36.328259        9.932777       27.732359       37.591811       20.210971        9.085011       10.064344        9.469782       18.579570      -10.000000      -10.000000      -10.000000      -10.000000      -10.000000      -10.000000      -10.000000      -10.000000        7.557971       23.270446       31.699559       23.037801      -10.000000      -10.000000      -10.000000      -10.000000      -10.000000      -10.000000      -10.000000      -10.000000      -10.000000      -10.000000      -10.000000      -10.000000      -10.000000      -10.000000      -10.000000      -10.000000      -10.000000      -10.000000
-10.000000      -10.000000      -10.000000      -10.000000      -10.000000      -10.000000      -10.000000      -10.000000      -10.000000      -10.000000      -10.000000      -10.000000      -10.000000      -10.000000      -10.000000      -10.000000       19.629146       41.512444       40.263410       40.075926       39.973951       40.161599       41.716430       40.319820       40.081970       34.537878       31.691101       29.968838       29.854689       34.793316       37.845469       40.918937       44.562515       44.656951       44.913604       44.922150       45.143369       40.310751       39.582893       40.232725       41.673762       40.808926       37.107395       39.590801       40.153819       40.304802       42.855306       35.903062       34.689151       34.799568       35.776052       40.430329       49.291953       54.247042       62.113908       76.671732       97.210512      901.274577     1800.726153     2498.627912     2474.869485     2426.416069     2537.757786     2383.928665     2161.766022     1868.316594      936.802064      349.080256      331.005365      261.075591      176.612522      193.446323      198.415294       28.646919       69.319236      117.573401      103.391358       99.702254       35.836925       18.469811       43.204722       42.701525       36.930959       30.637282       45.940491       18.019985       39.602111       43.350226       40.100479       45.931461       30.696950       39.606844       23.120596       24.725961       21.716483       16.561875        5.000000       10.142309        5.000000      -10.000000      -10.000000      -10.000000      -10.000000      -10.000000      -10.000000      -10.000000      -10.000000      -10.000000      -10.000000      -10.000000       19.164549       19.203344      -10.000000      -10.000000      -10.000000      -10.000000      -10.000000      -10.000000      -10.000000      -10.000000      -10.000000      -10.000000      -10.000000      -10.000000      -10.000000      -10.000000      -10.000000      -10.000000      -10.000000      -10.000000
-10.000000      -10.000000      -10.000000      -10.000000      -10.000000      -10.000000      -10.000000      -10.000000      -10.000000      -10.000000      -10.000000      -10.000000      -10.000000      -10.000000      -10.000000      -10.000000      -10.000000       12.855118       32.978928       37.614620       38.148790       38.355520       40.185334       43.314522       35.558983       30.008729       29.779161       30.033641       30.014670       30.149872       32.384782       35.435201       38.525743       40.371504       42.604754       42.383619       42.646684       41.179569       39.628033       35.871264       34.120257       31.889348       34.866715       36.430249       37.134388       44.437032       39.494106       32.681837       35.008631       33.810265       28.594898       30.022761       36.838571       45.786975       52.818711       60.611342       73.297296      108.275084      918.909776     1878.306936     2072.413482     2077.809938     2132.559097     1821.329086     1751.755500     1419.488625      368.467278      106.596525       94.065296      265.125690      225.553803      109.940997       18.410706      -10.000000      -10.000000      -10.000000       29.203027       43.272455       17.642251       10.486036       39.167204       39.610446       34.025073       41.582812       30.638093       29.604318       41.406937       13.636447       26.879233       44.024755       40.361488       27.616049       39.226425       35.480213       22.532195       10.951429        5.824263        7.250138      -10.000000      -10.000000      -10.000000      -10.000000      -10.000000      -10.000000      -10.000000      -10.000000      -10.000000      -10.000000      -10.000000      -10.000000        7.755341       12.180886      -10.000000      -10.000000      -10.000000      -10.000000      -10.000000      -10.000000      -10.000000      -10.000000      -10.000000      -10.000000      -10.000000      -10.000000      -10.000000      -10.000000      -10.000000      -10.000000      -10.000000      -10.000000
