3443.383162     3368.544926     3325.686286     3295.982366     3277.699225     3266.483660     3259.492414     3255.102914     3253.593474     3254.921555     3256.487779     3255.414242     3250.908862     3243.787213     3236.445858     3226.139366     3209.273491     3196.736816     3195.479955     3203.238919     3140.784183     3015.999473     2856.021168     2651.434935     2419.245896     2343.112869     2175.580229     1983.372745     1539.551898     1162.282850      788.806826      548.834340      453.065238      417.155797      402.906547      397.486895      355.901832      278.426512      243.922974      170.119145      142.327356      149.538522      123.802872      164.638598      247.524110      185.870747       13.683812      -10.000000      -10.000000      -10.000000      -10.000000      -10.000000      -10.000000      -10.000000      -10.000000        5.000000       33.713707       47.387218       56.100420       59.576950       61.596713       74.398158       68.672094       54.501008       55.432989       54.174904       49.569183       52.354290       49.303071       42.533499       62.385453       61.758546       64.360765      103.969965      129.230894       79.315952       89.643408      106.676874       92.654206       81.574568      107.845142      113.819904      111.350407       95.127252       76.808865       50.370561       46.074352       50.418046       48.726826       48.262284       49.562635       49.403432       43.046100       37.108115       41.578656       40.804112       51.823431       54.107840       58.732493       59.746826       58.651369       55.744112       53.418638       58.331337       66.771709       72.803585       77.224844       79.923196       78.766226       76.624437       72.424781       66.493777       58.952237       58.816320       58.023230       54.373104       54.119560       56.356436       55.993084       53.738801       51.230595       46.632356       41.604938       36.832202       30.126676       30.215784       28.353508       25.810197       24.182621       23.007866       22.757181       24.006839       25.952809       28.245734       30.688685       27.744110       20.690180       14.214319       15.672339       17.334644       17.669495       17.438398       16.990660       16.547365       16.260316       16.179963       16.473402       17.324678       18.750434       20.221612       22.084453       24.752535       28.898524       34.324221       40.187210       45.527401       50.026745       51.042696       55.642267       82.772004      101.519182      117.918617      126.318165      109.687160      125.889228      125.209385      117.113755      116.414576      119.391868      123.642358      123.181764      113.649294      108.354450      106.022085       99.637566      100.534281       97.308528       93.829488       76.213863       69.663430       92.325402      139.199049      154.513782      149.509662      146.181786      147.006193
3393.566775     3331.690613     3297.440230     3275.712571     3260.345276     3248.793263     3239.385935     3230.474439     3224.636457     3226.736932     3230.008187     3230.737728     3225.899786     3217.830837     3215.228753     3212.203374     3204.766862     3192.163983     3160.841158     3139.959065     3065.530709     2974.471180     2823.309845     2664.606157     2536.163449     2366.683138     2093.466751     1877.338076     1589.990313     1153.081932      702.938498      513.614652      442.138395      395.656941      337.148488      271.582978      207.314485      139.184630      108.502868       88.014951       55.959159      -10.000000       31.979830       89.063656      237.723364      292.563290       78.684620       29.049514      -10.000000      -10.000000      -10.000000      -10.000000      -10.000000      -10.000000       15.790849       41.057215       56.628888       69.250836       75.511674       61.052763       66.722773       70.003017       47.733489       42.532502       43.538857       37.177108       40.302066       45.730361       42.316391       40.902437       54.761594       48.686094       62.106273       95.291177       96.569219       68.066792       61.939434       71.394641       92.851145      100.821286       82.201008       76.781291       95.123315       75.104840       78.632877       68.410080       63.736923       41.014127       33.910530       41.490421       43.986022       49.476362       52.311257       52.621842       54.172228       54.410706       53.606331       54.906399       57.110789       58.824138       58.516019       55.959189       50.775744       55.841145       59.803334       63.756132       69.785145       75.394103       76.602483       73.042358       67.048143       58.436679       50.880714       48.632214       47.005282       46.960456       45.617268       45.033382       48.037635       48.952713       48.025414       45.237122       41.034766       35.683814       30.698239       28.236276       26.986420       25.356114       23.189672       20.702437       20.287437       22.663755       25.673009       28.702966       30.743573       26.099551       18.921930       19.203261       18.632809       18.182838       17.762068       17.109871       16.292452       15.490041       14.847900       14.469665       14.531902       15.344486       17.093831       19.692197       20.931222       21.497099       24.528766       29.421621       34.754196       40.195845       45.670039       51.730052       55.812858       70.661215       85.098626       95.433826      104.604658      108.590111      116.283525      122.727253      119.980476      117.907222      119.766863      129.017928      148.108471      134.949033      123.977058      121.929400      118.312378      109.690236      103.130760       88.198892       51.714277       44.002690       59.707927      107.388508      139.719840      153.771375      140.101033      134.467325
3292.772279     3267.023387     3260.244696     3251.290610     3242.350380     3233.461614     3223.959185     3211.884808     3203.042639     3205.225739     3209.795329     3214.645632     3210.740738     3200.482494     3201.448729     3204.641636     3202.255157     3173.148902     3101.751764     3030.903572     2963.776760     2890.515910     2782.117249     2660.628150     2511.043058     2208.542132     1912.631313     1610.526187     1255.839785      882.572380      536.272679      448.686885      393.220909      335.160440      248.490324      186.758268       96.868327       58.475589       47.423112       50.690178        5.000000      -10.000000      -10.000000      -10.000000      188.754479      271.173912      211.329431       33.540124      -10.000000      -10.000000      -10.000000      -10.000000      -10.000000      -10.000000       34.907645       52.810321       63.717779       77.878199       93.517396       80.799547       75.222999       48.789927       32.956996       47.706361       33.236152       30.514060       30.679798       37.538887       43.221835       49.754742       52.311124       49.897474       70.260624       73.578636       83.375629       56.525428       55.495755       56.092500       69.724042       91.711605       95.951424       68.219963       80.429807       88.470140       89.164224       76.280721       51.812242       33.160800       30.318160       37.146289       38.486461       46.117783       56.964286       57.382141       54.978605       52.409098       52.304301       55.716178       58.907304       59.248450       59.670339       59.656277       57.327087       52.053317       50.100139       54.819636       60.334516       69.547220       73.352221       71.000582       64.751069       55.322731       47.726266       45.555476       45.213160       43.647640       40.080328       39.685470       40.422129       42.116059       45.460373       44.592898       38.647106       35.252888       29.291118       26.392769       26.509021       25.411826       23.652882       21.288557       18.983346       20.494732       25.308216       29.158889       29.794220       26.395083       18.993992       19.571292       19.868009       19.001676       18.025741       16.898260       15.610957       14.363931       13.352399       12.582118       12.083384       12.489286       14.008829       16.684494       19.066215       19.469485       20.700060       24.804713       29.158733       33.681611       38.820372       44.196067       48.805971       55.500483       57.606792       71.650781       91.015192       99.407111      106.634939      117.460311      118.716153      115.253356      111.119322      113.665320      129.290765      135.935076      131.082864      130.723033      130.986437      124.229702      117.732253      101.726981       73.000934       45.054724       43.057279       72.102486       91.305242      107.055616      107.586034      112.672051
3211.334119     3218.652039     3229.285588     3230.180383     3227.133872     3221.655537     3214.282645     3205.464008     3199.672410     3196.956376     3195.994160     3202.787471     3197.347754     3179.907962     3180.575739     3189.183797     3168.007260     3117.584455     3046.039844     2988.587946     2903.257262     2816.421442     2737.943243     2616.107563     2420.701994     1956.557615     1739.010400     1501.498779     1082.156490      620.831667      452.419225      419.768058      348.594608      280.499699      217.008073      171.992618       99.079423       79.977468       69.255229       48.776449       29.791286      -10.000000      -10.000000      -10.000000      -10.000000      193.340285      220.072137       72.359838      -10.000000      -10.000000      -10.000000      -10.000000      -10.000000       10.139079       50.941914       61.117456       68.902241       83.110095       96.157211       86.388430       59.167651       38.487734       42.140138       44.091200       29.860553       27.852607       28.488703       33.972905       49.394953       54.681744       48.140571       47.936785       59.078810       81.111257       80.552605       50.945025       53.147764       48.255639       56.339110       73.806316       69.721216       55.381768       64.624487       89.312438       88.823545       66.748137       35.705393       31.065371       41.412486       46.251631       46.167463       46.896966       48.114363       45.886400       49.046093       51.191026       49.121826       50.561237       59.177567       59.507518       60.493558       63.279432       63.661243       57.123195       50.148872       49.996153       52.738912       59.386233       70.094646       70.143352       63.855974       54.086907       46.376631       44.300536       45.045294       44.475318       43.685859       42.548820       43.473373       43.871973       43.990657       42.403865       39.197348       35.089697       31.400217       28.224082       27.320209       26.219523       24.730494       22.981734       20.902069       18.452793       23.239461       29.148761       27.249640       24.276527       20.559824       19.583813       19.923742       19.351230       18.293640       16.850569       15.074453       13.279887       11.814807       10.854526       10.076793        9.539366       10.259048       12.178863       14.865379       16.152031       17.194472       18.761929       22.500723       26.422608       31.449170       37.877770       44.912823       45.080523       43.014368       53.671298       83.953398      100.544107      100.057172      107.565475      116.921839      113.849483       96.890165       93.010355      102.351890      121.840684      130.752368      132.747943      136.833130      139.513887      133.383886      119.159745      105.023054       73.619051       62.687975       60.736838      103.347656       72.630642       84.779849      104.546478
3192.703786     3204.750046     3212.005335     3216.114964     3216.306711     3213.289628     3208.312441     3203.752346     3201.459710     3182.712149     3164.644921     3164.022403     3147.338967     3119.402050     3119.060819     3123.113408     3099.259674     3056.875869     3011.731002     2962.511165     2872.855790     2809.496066     2725.649685     2592.200353     2299.648473     1838.641692     1650.283803     1383.487019      970.465957      528.973822      401.864248      373.989799      304.457332      257.768589      211.652102      181.113855      145.754291      100.210155       72.947885       26.388334      -10.000000      -10.000000      -10.000000      -10.000000      -10.000000      -10.000000      198.010600      179.369714      -10.000000      -10.000000      -10.000000      -10.000000       16.609197       42.582794       62.620219       72.349821       87.065379      102.450892      112.288784       75.630668       54.109444       43.032687       49.763664       32.614477       22.208891       24.910717       23.862232       37.649699       57.430858       48.265674       39.004258       39.643252       43.993355       45.657127       55.228360       53.638583       47.912811       50.905089       57.745772       58.454786       53.425760       71.379333       94.566148       91.823777       83.340232       51.940973       51.302477       47.113260       51.110098       51.452178       51.210265       43.547443       45.959579       39.379979       38.063213       44.136180       47.995352       46.945119       56.376640       58.421509       59.826978       61.576178       62.127026       57.486996       52.395424       50.059508       49.662868       50.271204       58.589734       65.911633       62.601452       53.768134       44.227525       41.322862       44.409687       43.731428       42.517486       41.838636       42.578499       42.744070       42.212375       40.286025       37.646818       35.041000       33.177199       30.860053       29.030301       27.600708       26.217878       24.709747       22.770886       20.911745       21.935532       21.462620       23.312367       22.523772       20.647155       19.981468       19.999443       19.747064       18.906162       17.333723       14.983615       12.218161       10.457426        9.903513        7.647791        5.000000        5.000000        8.096729       11.063244       11.924346       11.831193       11.519781       14.015761       19.205949       22.804354       29.698296       36.002866       36.252963       32.592437       39.852790       61.903171       85.813429       96.058810      101.058641      112.572475      126.538770       82.335313       58.266087       74.416534      110.512000      124.591269      126.423560      131.848173      143.593817      135.174327      119.216334      112.287332       80.442409       54.908669       55.634142       87.464108       98.317343      104.345219       93.106166
3196.212841     3200.655804     3203.170774     3207.448794     3208.637470     3206.938546     3202.208742     3189.817785     3171.056530     3139.299594     3109.336761     3093.393389     3068.622181     3035.931958     3038.455405     3036.216847     3030.650153     3014.625833     2981.676804     2913.606217     2836.131952     2784.653842     2649.576625     2445.502161     2221.187945     1895.547864     1607.872606     1326.610796      724.543389      357.844446      361.732244      332.993178      294.907697      249.892903      205.076533      191.596825      152.982314       93.107516       55.102794      -10.000000      -10.000000      -10.000000      -10.000000      -10.000000      -10.000000      -10.000000      -10.000000      -10.000000      -10.000000      -10.000000      -10.000000       30.160943       44.363949       63.981672       86.636308       92.656093      106.791411       99.227677       78.694913       68.364182       71.070833       45.533198       39.172595       25.123324       14.880456       25.884593       32.412362       48.770808       59.085185       38.460238       28.457644       31.827364       38.348933       39.933011       45.457020       45.184364       35.570129       44.740899       49.846981       46.847660       50.010837       64.147509       87.227320       84.924980       84.047594       78.212960       53.262543       55.509478       54.008078       52.962943       53.111079       51.540499       49.077706       44.674923       32.364516       34.924326       47.605603       49.996898       55.534007       56.911326       58.293667       59.709687       59.686604       57.552046       53.389056       50.184461       48.504888       50.481346       52.240478       59.872346       57.488699       53.033213       43.975389       40.241298       44.052356       39.925670       37.566703       36.915586       37.716222       39.282900       40.281991       39.480517       37.327744       35.468822       33.858818       32.182477       30.557983       29.139706       27.907293       26.732313       25.428282       24.263864       24.687608       20.691228       21.951357       22.307001       21.970553       21.036080       20.465829       19.999773       19.727009       18.851362       15.205958       11.502298        9.333331        6.763919        5.000000      -10.000000      -10.000000      -10.000000        7.271095        9.904822        9.592932        6.932556        7.670419       10.909983       14.850643       21.011605       27.036923       27.425865       28.699780       34.977508       49.268759       72.212238       86.964515       96.411084       98.890205      109.291523       89.678355       44.886789       40.263569       71.823389      105.122981      109.952076      106.490281      102.765344      100.298719       98.363786      101.419486       87.698299       46.089811       45.897945       54.275163       68.648968       70.682916       58.278463
3198.652291     3199.848879     3199.731490     3202.131459     3202.859561     3202.348260     3197.907142     3152.042012     3107.096096     3075.188634     3042.943046     3025.497844     2996.228503     2964.528983     2971.426551     2973.558130     2995.955938     2975.531069     2930.678835     2853.459455     2742.271835     2627.414426     2518.433225     2274.947268     2100.599306     1800.923008     1489.305647     1231.060152      873.884962      408.443736      357.283890      328.009487      302.948194      253.834156      201.186437      190.957242      129.470321       76.021362       44.324566      -10.000000      -10.000000      -10.000000      -10.000000      -10.000000      -10.000000      -10.000000      -10.000000      -10.000000      192.776608       91.795886       51.847479       21.916576       33.598858       66.324400       92.524728      122.347391      135.142699       94.550884       84.538834       62.712123       53.908618       43.836048       39.679187       41.066940       11.985126       28.677054       40.779055       47.285273       40.732293       25.627617       22.819696       25.558820       31.089761       32.579956       34.704922       44.507343       27.752981       28.457287       31.511469       33.780532       48.946426       46.381357       60.306749       67.817132       73.933283       62.533233       60.215391       37.761039       52.266458       53.099741       49.802350       42.112417       46.690768       50.715081       38.062801       31.767347       45.352041       50.850951       53.908874       55.292793       56.443045       56.963660       55.417836       52.928232       53.608556       50.267707       45.829394       48.587764       48.022558       48.455085       50.959714       49.031830       41.590731       42.198310       40.609662       32.785834       29.033372       29.976967       33.074217       35.473507       38.425919       39.215216       36.508532       35.271082       34.320318       32.998447       31.688571       30.534205       29.548585       28.762207       28.494313       28.408550       25.571440       21.003182       21.091038       22.739072       23.825726       22.986318       21.581162       20.345246       20.090786       19.692190       16.256592       11.171566        8.877188        5.000000      -10.000000      -10.000000      -10.000000      -10.000000      -10.000000        5.000000        5.000000      -10.000000      -10.000000      -10.000000      -10.000000        6.170636       14.401191       20.105236       23.077396       28.633663       38.863104       51.202625       68.747527       90.438116       88.210813       97.113692      103.630297       55.735519       24.747661       33.189371       56.673160       69.156126       63.605741       52.045354       44.449961       53.118711       65.378962       58.527209       41.605967       37.122516       39.108504       40.290030       41.316152       41.256812
3199.899518     3197.190491     3189.363915     3186.552215     3178.657239     3166.036394     3141.662002     3078.287981     3035.232567     3017.381114     2977.885278     2953.600672     2920.791114     2887.252138     2875.294930     2871.122997     2881.578396     2886.429183     2857.861789     2756.110839     2620.940000     2480.709738     2274.107874     2130.356147     1975.890853     1656.334008     1354.411265      962.455243      579.246411      383.482409      349.347836      327.451264      309.362825      280.816893      206.261284      177.389354       90.956637       53.470031       47.405570      -10.000000      -10.000000      -10.000000      -10.000000      -10.000000      -10.000000      -10.000000      -10.000000      -10.000000       91.433631      181.818929       76.571593       42.629973       21.234983       65.851152       87.405752      124.687186      155.582021      122.307132       85.471843       44.468836       30.353621       42.778342       40.162337       55.834504       41.129546       44.233149       68.067812       44.050151       32.961699       19.944582       13.152610       17.617958       26.918042       36.932010       35.832328       35.256433       24.187773       21.824358       21.580375       26.481401       47.438576       50.031925       73.169731       55.946339       61.783879       52.156958       48.332395       47.835175       51.741973       53.100890       39.509305       30.792831       33.279494       49.399166       44.763370       29.632565       44.513525       50.564297       52.480496       53.483981       54.279558       53.810395       46.386953       40.620718       52.913147       51.671350       45.726054       47.396661       44.019537       44.761713       45.365209       45.356207       42.649094       40.731073       36.474826       25.349733       15.899725       24.311985       30.086060       31.962413       34.126005       34.680283       34.078753       33.503374       34.558976       33.001474       32.236377       31.597099       30.995650       30.721977       29.776572       27.002946       21.631203       20.137655       20.984097       22.657208       24.486295       23.816919       22.618124       21.571254       20.711959       19.878681       17.308520       12.670422       10.163168        5.000000      -10.000000      -10.000000      -10.000000      -10.000000      -10.000000      -10.000000      -10.000000      -10.000000      -10.000000      -10.000000      -10.000000      -10.000000      -10.000000        5.000000       16.357123       21.632891       26.686752       33.288289       42.064970       60.305563       61.044758       59.927053       62.396042       50.104479       23.552235       19.447242       26.091689       33.372573       37.845930       30.150985       25.551728       27.706511       31.710081       31.868348       27.742202       28.229375       32.734652       33.903896       34.974612       38.550330
3199.171425     3183.987527     3161.624550     3142.104922     3118.287155     3086.684739     3045.787147     2998.484759     2966.224272     2949.794390     2904.860145     2872.466894     2836.948154     2803.672007     2782.101763     2774.761767     2749.787436     2766.292746     2742.945211     2622.790219     2495.596614     2320.793171     2136.211107     2009.950437     1815.916871     1494.639935     1200.956964      763.176622      453.065484      369.853423      335.492409      308.323817      278.149759      274.964002      218.531599      129.182355       73.063543       33.019134       25.020978      -10.000000      -10.000000      -10.000000      -10.000000      -10.000000      -10.000000      -10.000000      -10.000000      -10.000000      -10.000000      171.097940      159.660508       96.859431       84.549289       81.142867       72.448651      121.854254      171.376444      151.121145       73.829789       50.037892       55.758608       54.311102       58.198682       67.546031       65.146516       60.669652       64.417757       52.874625       39.027364       32.977076       17.197065       14.243096       24.210443       35.304897       30.287159       27.481638       24.731222       16.322528       17.577146       22.206007       31.999002       35.674286       48.825989       58.515234       60.307337       59.522656       33.095814       48.696171       52.085887       44.600123       29.201950       25.540869       31.677386       47.800149       49.346333       45.020674       46.934812       51.438784       52.023223       51.478613       51.561690       51.369508       37.951669       32.069448       47.286939       50.957667       47.330301       45.326147       43.213751       44.533200       45.123841       45.288491       44.170718       42.906219       37.408439       31.145224       29.730590       29.309715       32.791747       33.196243       34.006263       33.527290       32.950840       31.686226       31.241459       31.592536       32.094050       32.390683       32.325929       32.154347       30.134154       23.567387       20.066089       19.965044       20.603317       21.580922       23.112881       23.549174       23.093108       22.435596       21.617022       20.554415       18.348767       14.844521       11.406649        8.716620      -10.000000      -10.000000      -10.000000      -10.000000      -10.000000      -10.000000      -10.000000      -10.000000      -10.000000      -10.000000      -10.000000      -10.000000      -10.000000      -10.000000      -10.000000        7.750012       17.116364       22.347676       28.797160       36.878574       41.232027       42.059413       39.275474       32.460688       23.068383       18.303227       15.992263       15.547559       16.368735       18.951349       19.567696       18.625000       17.454557       15.863231       17.265253       20.892704       24.082591       27.681228       30.981169       36.202760
3180.503382     3151.709739     3123.908473     3093.963619     3058.764699     3020.995309     2979.031350     2941.450673     2902.524672     2857.735776     2824.763013     2797.287014     2756.666066     2711.390018     2661.379398     2613.320716     2553.332231     2574.169643     2546.385635     2470.105898     2328.413776     2162.096568     2036.338245     1881.214423     1605.538920     1266.062291      926.270476      598.115769      463.716229      369.723326      283.052864      216.324958      214.826337      239.739831      231.248610      148.568623       87.521659        5.000000      -10.000000      -10.000000      -10.000000      -10.000000      -10.000000      -10.000000      -10.000000      -10.000000      -10.000000      -10.000000      -10.000000        5.000000      147.455785      156.316153      153.555560      146.507366      112.976874      143.978700      182.712028      173.831363       98.445859       96.739156       99.897767       82.049769       84.607401       85.995605       86.149589       71.368702       63.859611       56.284217       39.455000       42.114423       18.929040       19.597083       36.693419       30.723034       23.744850       17.844381       18.738253       12.447312        5.000000       14.906910       17.119122       16.021760       37.593064       54.556926       65.733336       51.319905       34.162816       44.518707       45.733918       46.654891       27.786062       32.428531       31.562770       41.196542       49.601366       50.758375       52.187117       51.624632       51.070743       50.603140       46.711664       36.715810       22.735878       20.464893       38.179790       56.080978       49.814859       42.420054       42.648844       44.729247       44.479625       43.492944       42.038603       40.168015       38.383903       36.852436       37.156509       39.497121       38.391348       37.636719       38.062485       38.647212       34.534208       32.760238       31.585603       30.292748       32.259548       33.227002       33.100571       31.434238       25.421106       21.466542       20.099679       20.511394       20.198176       20.010819       21.823083       22.730013       22.904303       22.778952       22.223140       21.251729       19.714915       17.021155       13.502213       10.440409      -10.000000      -10.000000      -10.000000      -10.000000      -10.000000      -10.000000      -10.000000      -10.000000      -10.000000      -10.000000      -10.000000      -10.000000      -10.000000      -10.000000      -10.000000      -10.000000      -10.000000        8.917772       16.395430       22.405275       26.942818       28.961558       28.476440       25.370066       20.996545       16.276893       12.399779       10.091470        8.786517       11.323212       13.452876       14.910606       14.587234       13.351553       14.425740       17.644436       19.487670       21.370714       25.968743       31.584200
3115.917033     3105.171349     3083.241546     3052.034303     3015.933577     2986.623566     2938.398035     2893.197521     2847.841825     2794.606286     2752.650547     2718.349862     2669.404392     2616.286859     2557.565099     2484.576503     2391.197388     2372.775624     2346.699349     2274.229618     2159.427191     2056.686197     1936.656269     1652.441916     1320.113930      983.489516      636.396235      447.225563      419.289348      388.151161      279.516923      202.582059      199.333807      207.142282      209.449235      191.547921      126.647289       15.978433      -10.000000      -10.000000      -10.000000      -10.000000      -10.000000      -10.000000      -10.000000      -10.000000      -10.000000      -10.000000      -10.000000      -10.000000       38.977253      133.200882      164.186991      177.037277      173.080475      163.022304      152.471722      147.914337      118.225689       88.783330       99.623624       99.192556       97.776792       99.166290       98.071568       83.790757       75.761032       64.957538       40.743075       37.852084       44.360024       28.783595       32.022617       24.906453       21.210319        8.908001       10.175084       10.285951        5.000000        5.000000        5.000000       12.673314       34.253314       58.899998       63.858629       35.728184       23.155045       33.143054       31.874491       37.675145       41.154969       36.372909       41.749724       43.569525       48.448462       51.763472       47.877282       26.335884       44.004044       51.293678       43.163802       13.989806       18.575054        5.000000       36.245119       52.804009       48.072122       44.218871       42.439425       43.701204       42.927281       41.574992       40.059276       38.965114       37.400217       33.190304       33.989445       34.905316       39.377771       39.811498       39.924928       37.703860       34.493979       32.735662       32.253630       33.066476       33.457678       34.051923       33.440621       27.795334       20.975105       18.985376       19.855921       20.915283       16.478095       16.217514       18.966347       20.609658       21.401328       22.439255       22.359401       21.642315       20.660467       19.403401       16.779738       12.989351        8.676997        5.000000        5.367533      -10.000000      -10.000000      -10.000000      -10.000000      -10.000000      -10.000000      -10.000000      -10.000000      -10.000000      -10.000000      -10.000000      -10.000000      -10.000000      -10.000000      -10.000000      -10.000000        5.876047        9.890104       15.480323       18.319180       16.618272       13.357937       10.375449        7.248555        5.000000      -10.000000      -10.000000        5.079849        8.578881       11.050338       10.918526       12.897774       15.379762       17.053636       18.878318       21.943478       26.647380
3062.325297     3061.072326     3047.865319     3024.124073     2988.975989     2944.156741     2886.967584     2842.187048     2801.488431     2737.883087     2667.027295     2629.515241     2570.699970     2496.420153     2414.192610     2342.645006     2269.857509     2198.964412     2189.532844     2113.370305     2054.832002     2011.283573     1786.790146     1398.820200     1031.446529      671.952830      429.792712      342.671677      342.914574      348.868252      311.021022      245.864619      204.400441      198.692639      188.552315      185.037768      160.271604       68.514398      -10.000000      -10.000000      -10.000000      -10.000000      -10.000000      -10.000000      -10.000000      -10.000000      -10.000000      -10.000000      -10.000000      -10.000000      -10.000000       31.948951      112.674616      172.055018      184.460835      161.034911      118.757319      100.051481       94.490388       78.697684       80.226121       90.500888       93.212911       91.643670       85.112832       77.545653       79.837277       79.042111       55.741035       44.408910       56.088693       38.336357       32.648150       30.728150       23.108324        5.000000       13.219803       11.250063       10.337844        6.618427        7.070928       12.005846       33.870588       47.625960       59.031130       30.082887       17.952393       23.292928       31.759781       35.270697       41.919404       43.150646       43.060597       44.779736       47.604258       51.106295       45.184464       23.581216       40.337475       51.489812       18.593584        6.187385       20.441347       29.829583       41.167608       49.334541       46.868851       44.669997       43.005656       42.241533       41.601331       40.522036       39.679731       38.949241       34.554258       27.057067       20.994655       28.881827       34.181917       36.176684       35.302511       34.713264       32.494102       31.593494       32.453346       34.092444       34.378278       33.878200       32.611853       22.420592       18.017845       18.873575       19.989193       17.182144       13.760043       13.088358       13.761457       11.408405       12.909583       19.240216       21.801197       21.418172       20.893498       20.456801       19.756258       16.664966       11.143890        5.000000        5.000000      -10.000000      -10.000000      -10.000000      -10.000000      -10.000000      -10.000000      -10.000000      -10.000000      -10.000000      -10.000000      -10.000000      -10.000000      -10.000000      -10.000000      -10.000000      -10.000000      -10.000000      -10.000000      -10.000000      -10.000000      -10.000000      -10.000000      -10.000000      -10.000000      -10.000000      -10.000000      -10.000000      -10.000000      -10.000000        5.000000        5.000000        9.663325       12.640318       14.206473       16.893359       20.352240       23.925333
3028.626625     3025.662207     3017.064653     2997.382797     2949.159596     2883.188235     2830.597079     2799.262644     2741.892749     2663.387966     2584.397377     2510.902834     2457.247179     2359.652673     2239.939175     2195.710605     2156.364584     2131.163172     2076.882176     2015.088163     1958.822955     1850.646824     1474.729998     1074.037466      702.425073      428.000455      280.687618      228.972591      231.744333      259.755899      244.518064      198.945797      145.859652      136.271399      142.546037      133.939369      152.465005      102.676169      -10.000000      -10.000000      -10.000000      -10.000000      -10.000000      -10.000000      -10.000000      -10.000000      -10.000000      -10.000000      -10.000000      -10.000000      -10.000000      -10.000000       16.252976      114.858695      177.660766      156.351171      108.633965       62.551756       52.088736       55.068899       55.995457       58.072164       73.927815       82.382495       70.005487       51.084325       70.409060       79.206185       68.974971       62.498611       63.067367       48.838961       41.167904       39.654633       32.713345       22.398841       15.356306       16.710572        8.541495       10.613371       10.008474       10.717918       19.697637       37.176728       44.148728       43.946283       27.274899       17.584132       27.416286       32.065655       40.231729       42.691131       40.819220       40.586898       42.738412       49.926923       48.412950       36.730265       44.271495       48.656655       23.920128       32.018344       34.399977       43.287459       44.951084       43.230370       42.168561       41.861139       40.700729       41.039103       41.060200       40.104510       39.959317       39.350854       33.512258       18.518622       17.961732       21.825248       34.671395       35.531356       33.709705       32.406936       30.688029       29.725492       30.784524       31.157660       33.083715       29.358172       28.553863       20.723350       19.022028       19.705375       20.764199       20.806755       15.703297       14.524084       12.381492       10.282082        8.657141        7.845545       16.971660       19.972746       20.615184       20.701446       20.654889       19.786115       15.569276       10.697142        7.346369      -10.000000      -10.000000      -10.000000      -10.000000      -10.000000      -10.000000      -10.000000      -10.000000      -10.000000      -10.000000      -10.000000      -10.000000      -10.000000      -10.000000      -10.000000      -10.000000      -10.000000      -10.000000      -10.000000      -10.000000      -10.000000      -10.000000      -10.000000      -10.000000      -10.000000      -10.000000      -10.000000      -10.000000      -10.000000      -10.000000      -10.000000        5.000000        6.549223       10.194001       13.459440       18.442872       22.687589
3010.448497     3002.554495     2977.151952     2934.859621     2882.621573     2829.321350     2785.607200     2746.992368     2675.862179     2599.956229     2496.002185     2410.368964     2362.555140     2233.129863     2145.692899     2096.318106     2069.844076     2048.389015     1994.245705     1919.562088     1767.154082     1480.000148      984.146463      684.197028      466.092169      322.851768      227.399384      174.950267      164.922191      171.323585      147.532461       99.685507       70.856300       70.674169       87.177064       72.116936      119.703307      117.967608      -10.000000      -10.000000      -10.000000      -10.000000      -10.000000      -10.000000      -10.000000      -10.000000      -10.000000      -10.000000      -10.000000      -10.000000      -10.000000      -10.000000      -10.000000       44.232880      118.976055      151.708334      123.568470       65.300735       53.937290       53.354083       56.724520       47.595049       44.756888       45.255262       61.969231       55.441215       54.131445       74.594647       80.792926       77.888244       69.309457       63.977273       55.809062       53.654986       39.336628       34.456543       28.415310       20.436590       15.712252        9.566946       14.693465       10.471673       15.494145       21.348154       23.568021       33.275071       45.842140       29.185053       30.962492       31.758603       40.458283       48.180314       50.081405       43.170417       41.091825       45.951829       50.266812       48.196871       48.544739       46.753385       33.830413       45.997042       45.673984       45.730232       34.149546       24.492737       23.862960       28.524117       30.947607       36.548789       41.016607       40.336237       40.028730       39.924785       37.734208       25.329887       18.791879       20.353680       34.775903       36.738269       35.348687       33.836033       32.039508       29.770297       28.653826       25.174011       26.226741       30.021519       29.158835       23.858795       21.147334       20.454229       20.646318       20.933908       19.717757       16.325515       13.230055       10.787714        9.484417        8.025556        9.132106       14.178843       18.725482       20.422181       20.839290       20.805252       19.959400       15.574555        9.064115      -10.000000      -10.000000      -10.000000      -10.000000      -10.000000      -10.000000      -10.000000      -10.000000      -10.000000      -10.000000      -10.000000      -10.000000      -10.000000      -10.000000      -10.000000      -10.000000      -10.000000      -10.000000      -10.000000      -10.000000      -10.000000      -10.000000      -10.000000      -10.000000      -10.000000      -10.000000      -10.000000      -10.000000      -10.000000      -10.000000      -10.000000        5.000000        5.000000        5.270069       10.123455       14.938465       20.302877
3002.967698     2988.641316     2922.842459     2851.155865     2817.393189     2784.787207     2731.707781     2667.208146     2622.188115     2528.118956     2406.112096     2322.877770     2214.035054     2143.142564     2060.990833     2004.827756     1974.216798     1899.182338     1757.027687     1471.713380     1076.342795      817.747049      555.953506      408.276293      336.763924      260.166297      167.605564      145.076216      131.501207      120.553768      107.797985       61.686673       56.164821       49.480371       68.589000       41.318983       76.164651      131.935297       95.785148       10.563555      -10.000000      -10.000000      -10.000000      -10.000000      -10.000000       25.463994       50.336903       76.575295       86.249329       71.769028       26.570884        5.000000      -10.000000       32.738099       88.495217      130.302474      137.761769      101.526279       94.659962       96.950595       87.365520       71.615263       39.105671       25.444093       33.619860       68.587698       52.637095       62.101090       74.945659       72.765448       68.625756       67.252389       62.116687       58.194926       47.851423       42.971178       42.576021       33.864661       26.320560       20.721995       22.137965       18.308457       17.720468       21.031036       18.238546       35.285206       48.217586       42.547250       43.167152       44.244809       42.260753       44.847386       40.242686       35.513225       41.719208       47.980575       49.902033       49.884569       47.715315       46.656373       44.699137       45.892482       46.889116       46.329402       34.997155       13.991454      -10.000000        5.000000       18.081519       26.172314       38.171362       40.518399       40.198351       40.015219       39.452125       32.790556       19.739812       19.339436       23.049150       31.748130       34.720835       34.861723       33.762553       30.677986       29.190463       27.383712       30.986287       34.299576       30.191111       24.970076       22.155151       20.831137       20.356741       19.977211       19.127199       16.737779       13.488774       11.060730       10.062103        9.610667        9.446998       10.224932       14.422123       18.250769       20.757379       21.541473       21.451186       18.872599        8.531924      -10.000000      -10.000000      -10.000000      -10.000000      -10.000000      -10.000000      -10.000000      -10.000000      -10.000000      -10.000000      -10.000000      -10.000000      -10.000000      -10.000000      -10.000000      -10.000000      -10.000000      -10.000000      -10.000000      -10.000000      -10.000000      -10.000000      -10.000000      -10.000000      -10.000000      -10.000000      -10.000000      -10.000000      -10.000000      -10.000000      -10.000000        5.133375        5.332043        5.000000        8.434522       12.977742       18.041509
2976.039692     2940.531865     2867.882694     2805.618173     2762.861259     2716.386097     2658.074795     2589.311687     2496.735469     2428.654738     2325.637329     2215.770490     2167.054516     2073.958223     1983.723434     1905.793616     1794.611865     1603.372280     1325.774759      918.835900      612.174972      465.170548      344.309256      247.535357      211.163328      175.034456      116.349053       96.208667       89.129416       93.419871       91.895149       71.932483       55.371609       45.360358       50.013699       19.942124       15.886983      145.446354      147.057216      110.297640       97.825073      106.019401      116.038459      122.287816      110.955752      113.387948      132.360836      114.815550      120.793920      123.077912      102.080526       79.346782       60.925087       70.154950       98.062127      114.992385      115.496857      112.233745      115.805131      126.954596      114.713225       96.644985       65.270058       42.583842       38.155042       37.126702       48.492567       47.423503       62.841937       55.466429       61.585119       59.695677       55.142565       50.197996       46.055791       37.273825       41.859146       74.450038       43.811903       30.508630       39.269909       35.450663       29.252277       27.233077       28.132497       41.594075       42.780157       42.785782       46.517441       45.712153       47.160116       45.758113       38.295603       41.189840       39.407478       43.478060       48.121928       49.482510       45.720730       44.882382       45.208003       46.017724       47.174637       48.120095       44.280596       25.668168      -10.000000      -10.000000        5.000000       21.152465       31.074529       38.610414       40.200474       40.014935       39.691939       35.333503       24.908473       14.282885       13.917258       20.676437       27.677807       32.588859       34.068965       32.411145       26.795623       30.949881       36.787646       35.232164       27.985633       23.754305       21.792406       20.702921       19.855094       17.854466       15.554590       13.923690       12.552941       11.521069       10.399567        9.962215       10.011157       10.462170       11.643794       13.782444       19.656013       22.868925       22.195587       17.394195        5.000000      -10.000000      -10.000000      -10.000000      -10.000000      -10.000000      -10.000000      -10.000000      -10.000000      -10.000000      -10.000000      -10.000000      -10.000000      -10.000000      -10.000000      -10.000000      -10.000000      -10.000000      -10.000000      -10.000000      -10.000000      -10.000000      -10.000000      -10.000000      -10.000000      -10.000000      -10.000000      -10.000000      -10.000000      -10.000000      -10.000000      -10.000000        5.093744        5.856591        5.525834        7.114069       12.515172       17.513856
2901.917746     2861.833851     2817.161564     2777.629997     2694.323020     2630.947771     2570.653911     2492.171472     2403.935527     2322.108915     2228.565402     2184.227250     2110.180447     2012.957056     1898.490258     1755.927273     1571.566082     1231.774463     1002.450725      672.433779      423.645682      359.332024      309.508087      249.973730      168.857657      114.185696       83.807381       71.665712       65.430466       65.354286       64.529884       57.979694       44.580193       33.531200       28.615625       19.697244        5.000000       17.782180      157.606593      170.130129      169.938498      176.754761      179.320831      190.942501      186.954980      155.298652      126.575530      116.226271      121.971956      125.158814      129.497016      114.885884       98.507673       99.434924      107.972964      104.557706      101.688635       99.646919      106.143195      126.074680      125.293445      115.182840      101.155038       80.355640       57.996941       39.663678       45.541096       66.344451       76.987976       58.500517       53.042606       49.241151       34.694130       33.581902       40.193137       29.941211       24.148954       29.837309       50.400779       42.575048       38.151174       46.676770       53.076737       41.865932       31.464394       44.578216       39.327435       38.288632       48.732820       50.650251       50.029893       49.144005       49.114202       50.548804       49.509168       39.001846       42.523926       46.716298       45.684230       44.803111       45.017311       45.564514       46.841310       48.208388       48.267505       37.037307       13.258349      -10.000000      -10.000000       16.837412       23.530755       31.895016       39.066774       39.840029       39.922505       36.328259       17.715127        9.546980        5.000000        9.932777       20.437286       28.347897       30.349210       27.732359       27.430933       33.660730       65.892557       37.591811       26.164754       21.641483       20.469798       20.210971       19.059839       15.756228       11.458681        9.085011       10.182114       11.676593       10.850484       10.064344        9.564888        8.414871        8.719892        9.469782       16.038593       24.028797       23.510429       18.579570        5.000000      -10.000000      -10.000000      -10.000000      -10.000000      -10.000000      -10.000000      -10.000000      -10.000000      -10.000000      -10.000000      -10.000000      -10.000000      -10.000000      -10.000000      -10.000000      -10.000000      -10.000000      -10.000000      -10.000000      -10.000000      -10.000000      -10.000000      -10.000000      -10.000000      -10.000000      -10.000000      -10.000000      -10.000000      -10.000000      -10.000000      -10.000000      -10.000000      -10.000000        5.796198        7.557971       11.334645       15.529319
2829.623141     2810.575361     2761.586844     2702.385375     2622.972278     2559.680051     2483.126548     2412.292582     2332.430130     2222.661553     2176.827420     2128.239706     2055.305191     1923.934781     1754.815272     1597.373523     1376.952827     1058.873772      808.499871      512.983856      396.156671      362.904216      331.837769      312.045531      260.306744      145.953306       76.479752       62.215732       53.699479       55.869175       50.317989       44.354145       30.220062       20.849233        9.696985        7.802667        5.000000       35.850250      144.726329      191.872895      198.168976      202.977263      203.853782      186.747401      173.593502      161.416533      126.446400      120.476851      127.782982      135.505858      144.579815      129.503938      102.361272      104.807742      103.293701       96.643503       97.109181       97.812586       97.151903       94.851773      100.680107      107.069379       96.639203       89.726019       84.178779       67.381987       67.753491       83.257030       86.959821       75.817126       55.892199       52.763158       33.332077       22.793161       26.558669       25.807379       24.333364       29.928081       42.207502       45.589641       35.049200       41.980494       43.682157       50.732744       41.775506       41.850926       43.763354       43.129989       48.750729       50.011065       48.609270       48.551010       45.894091       50.426524       52.356999       42.488768       40.004656       40.314185       42.311532       41.856915       40.399394       42.606894       45.752216       47.877153       49.208550       46.932190       30.109207       15.823022      -10.000000       15.275631       27.829122       33.341414       37.199164       38.989703       39.669894       36.948452       21.004732       11.197744        5.000000        8.482402       19.327876       26.912452       29.142047       24.834383       40.152472       27.015247       35.693685       32.458321       24.150689       20.178894       19.955783       19.979766       18.603417       14.313042        6.972184      -10.000000      -10.000000        8.178742       10.351545        9.474706        7.294226        5.000000      -10.000000        5.008651       12.424932       22.555528       24.424874       24.092681        6.241563      -10.000000      -10.000000      -10.000000      -10.000000      -10.000000      -10.000000      -10.000000      -10.000000      -10.000000      -10.000000      -10.000000      -10.000000      -10.000000      -10.000000      -10.000000      -10.000000      -10.000000      -10.000000      -10.000000      -10.000000      -10.000000      -10.000000      -10.000000      -10.000000      -10.000000      -10.000000      -10.000000      -10.000000      -10.000000      -10.000000      -10.000000      -10.000000      -10.000000      -10.000000      -10.000000        5.684414        8.774926
2763.512581     2751.612242     2678.546028     2624.716158     2574.050957     2502.650635     2421.786932     2322.512353     2240.188126     2178.627349     2123.786268     2068.693624     1962.128387     1764.016825     1600.029911     1429.333184     1164.990892      946.428009      616.831238      446.318965      388.483546      361.991455      341.699034      332.440889      329.968818      276.617304      139.405879       73.854118       49.878615       50.233393       48.665579       39.641093       24.646620       19.991400        5.000000        5.620488       41.266064      143.252538      192.830858      199.182874      199.933957      207.445130      209.871930      214.596799      196.368467      181.579042      163.472189      143.771686      123.521174      105.054488      114.040833      132.798582      100.748036      100.756794      100.499435       90.755560       90.104541       90.838462       97.715559       90.961547       85.945322       80.537846       73.768287       58.127920       79.474922       87.895891       80.196586       87.392566       83.044314       67.815447       55.589623       52.786499       51.116013       34.621566       24.487093       25.336282       28.137018       33.831697       40.803357       48.341327       42.385250       37.746156       38.320567       41.218762       49.874875       46.721475       49.697760       52.130034       49.489539       46.252690       43.324731       37.337556       36.467037       41.056512       44.708799       49.359872       42.762011       40.155451       39.971900       39.367498       36.274639       34.885386       41.192357       47.421858       49.276863       49.314302       42.288621       27.512733       17.648756       11.720220       27.006818       35.116332       37.044264       38.273184       38.669750       40.550258       24.201503       12.590945        8.180399        8.523364       14.585479       23.090520       29.900143       29.359707       36.370885       33.944133       26.751936       25.376287       22.047003       20.259711       20.003831       19.799479       18.148210       12.771728        5.000000      -10.000000      -10.000000        5.260545        9.726776        8.829487        5.799757      -10.000000      -10.000000        5.000000       12.692604       21.523947       24.106496       25.681979       22.762772        6.958723        5.000000      -10.000000      -10.000000      -10.000000      -10.000000      -10.000000      -10.000000      -10.000000      -10.000000      -10.000000      -10.000000      -10.000000      -10.000000      -10.000000      -10.000000      -10.000000      -10.000000      -10.000000      -10.000000      -10.000000      -10.000000      -10.000000      -10.000000      -10.000000      -10.000000      -10.000000      -10.000000      -10.000000      -10.000000      -10.000000      -10.000000      -10.000000      -10.000000      -10.000000      -10.000000      -10.000000
2652.633841     2656.423599     2581.663315     2516.630117     2472.415973     2425.003527     2327.901070     2237.130463     2176.927885     2111.702553     2048.016571     1995.165178     1822.254711     1635.101313     1445.753036     1157.038879      829.163532      593.920397      404.209024      382.194893      375.185414      355.254639      342.268672      334.050039      327.730691      309.183338      250.465122      173.804427      103.570886       71.448286       78.094630       70.738914       44.426599       33.101016       49.690871       81.187880      150.333076      194.545153      200.057856      200.259738      200.759105      195.516742      190.249335      163.347043      170.083873      138.234374      134.067912      123.665797      104.739590       72.956304       76.086652      112.598233       97.752872       98.022954       97.259770       94.488754      102.146262       96.194286       92.575061       80.834002       74.580939       77.249220       51.821749        5.797018       19.024615       18.913801       47.214785       52.171777       65.232198       62.358180       50.413389       49.153152       56.001042       56.723032       42.473696       30.101681       33.022334       38.438543       40.635345       40.654977       44.490617       51.532709       39.828253       48.520011       47.256195       51.172506       49.905628       50.679298       44.489563       28.868846       29.167228       27.555229       35.422132       46.241462       42.029861       44.325035       51.197904       47.353998       43.436064       39.708245       33.699735       30.509259       31.270984       45.084031       48.982465       50.292769       48.729521       35.513768       20.532974       16.777928       23.981298       32.922597       36.799180       38.288821       39.099574       39.420869       26.839746       15.330024       12.688958       11.185649       10.405183       23.531359       29.633803       28.618551       23.772086       26.577650       24.406648       22.658510       21.262150       20.245911       19.851635       18.989314       15.675662        8.119264        5.000000      -10.000000      -10.000000        6.848282        9.882388        9.473261        6.821990        5.000000      -10.000000        5.000000       13.343266       20.831250       22.804050       24.456809       25.454319       16.062538        5.950307        5.000000      -10.000000      -10.000000      -10.000000      -10.000000      -10.000000      -10.000000      -10.000000      -10.000000      -10.000000      -10.000000      -10.000000      -10.000000      -10.000000      -10.000000      -10.000000      -10.000000      -10.000000      -10.000000      -10.000000      -10.000000      -10.000000      -10.000000      -10.000000      -10.000000      -10.000000      -10.000000      -10.000000      -10.000000      -10.000000      -10.000000      -10.000000      -10.000000      -10.000000      -10.000000
2523.266334     2506.426371     2419.544878     2383.928665     2358.197235     2302.693531     2217.202646     2161.766022     2097.670017     2037.146546     1958.625074     1868.316594     1698.575565     1489.359873     1230.346823      936.802064      557.008949      357.775837      340.473191      349.080256      349.471376      343.157296      338.253353      331.005365      318.761113      302.962794      283.013099      261.075591      234.730689      228.043599      187.363369      176.612522      192.045406      199.178322      177.520355      193.446323      200.265436      199.325190      194.650774      198.415294      196.441691      149.031365      113.158450       28.646919       55.359721       51.606793       43.849718       69.319236      107.107073      100.606807      111.619842      117.573401      117.967818      109.572824       84.586054      103.391358      108.405756      117.283710      106.595533       99.702254       79.691452       64.206853       66.371128       35.836925        5.000000        5.000000        5.000000       18.469811       24.929699       38.387827       43.867982       43.204722       40.036220       52.838877       50.894192       42.701525       40.995512       40.706904       40.851092       36.930959       36.195222       32.550964       26.239337       30.637282       38.702236       45.113885       48.835981       45.940491       30.887208       13.276308       15.043448       18.019985       29.961481       27.204597       32.243933       39.602111       47.309940       50.618863       48.109210       43.350226       41.117064       36.484385       32.915606       40.100479       48.750608       51.154649       50.739011       45.931461       30.494939       20.117468       29.954997       30.696950       35.497693       39.247638       40.554321       39.606844       29.267282       28.947688       29.053823       23.120596       19.619350       28.117739       31.083205       24.725961       21.575603       22.808532       22.722283       21.716483       20.798488       20.187509       19.608472       16.561875       12.738721        5.810796      -10.000000      -10.000000      -10.000000        5.000000        9.124198       10.142309        9.336111        5.000000      -10.000000        5.000000        9.542754       15.902527       18.222902       21.177829       22.840732       17.503380        7.817412        5.667813        5.276436      -10.000000      -10.000000      -10.000000      -10.000000      -10.000000      -10.000000      -10.000000      -10.000000      -10.000000      -10.000000      -10.000000      -10.000000      -10.000000      -10.000000      -10.000000      -10.000000      -10.000000      -10.000000      -10.000000      -10.000000      -10.000000      -10.000000      -10.000000      -10.000000      -10.000000      -10.000000      -10.000000      -10.000000      -10.000000      -10.000000      -10.000000      -10.000000      -10.000000
2358.080067     2339.330600     2317.139687     2259.446625     2218.674389     2182.627832     2136.313763     2049.592653     2008.868401     1959.310960     1858.395205     1712.798551     1532.211954     1364.332569     1071.666114      726.814364      440.596213      351.430372      330.104248      328.431660      325.702565      328.286345      335.132777      329.838500      314.979122      300.662654      292.234159      283.211015      280.062001      288.164003      278.747367      273.310063      266.553952      253.490004      247.996951      225.129221      198.723409      186.020498      164.838881      168.451029      158.946668       87.603425      -10.000000      -10.000000      -10.000000      -10.000000      -10.000000        5.000000       47.034910       76.790055       77.585062       82.579210       91.645136       96.751410       82.056889       77.646611       81.801343      109.770759      126.289119      134.982293      124.749826       91.977800       77.989703       64.769627       49.168841        5.999798        6.863622       30.172324        8.932688       19.005452       13.970063       29.234430       28.795957       40.870044       44.683193       40.903985       38.489234       33.760485       33.853256       47.430351       42.474129       33.680562       25.318995       30.458702       34.775733       40.399815       50.029916       44.151502       26.719070       13.941006       10.209616       17.448405       24.515215       35.440827       22.973077       30.383043       39.959221       48.509364       43.358995       41.057157       46.174078       43.545763       39.955507       39.030389       43.644863       49.972748       51.709463       50.479464       41.067159       24.564919       32.714494       33.427385       37.389614       43.172404       42.672402       41.082061       34.975809       38.453416       45.010901       35.572351       32.539156       33.000838       31.519792       26.151310       23.003642       23.671125       23.013886       21.308709       20.080865       19.310381       17.532348       14.245329       10.618631        6.263108        5.000000      -10.000000      -10.000000      -10.000000        5.277524       10.102716       10.792253        7.474309      -10.000000      -10.000000        6.217446        9.833711        8.859786       12.194539       14.634860       11.582406        7.044353        7.145326        6.632634        6.276695        6.361783      -10.000000      -10.000000      -10.000000      -10.000000      -10.000000      -10.000000      -10.000000      -10.000000      -10.000000      -10.000000      -10.000000      -10.000000      -10.000000      -10.000000      -10.000000      -10.000000      -10.000000      -10.000000      -10.000000      -10.000000      -10.000000      -10.000000      -10.000000      -10.000000      -10.000000      -10.000000      -10.000000      -10.000000      -10.000000      -10.000000      -10.000000
2211.791373     2186.652851     2182.611587     2114.438394     2064.017381     2052.686938     2026.404802     1959.977526     1924.987354     1866.039513     1774.647559     1599.340322     1402.518464     1211.616815      868.981020      596.944980      390.459561      350.614732      325.184617      300.164307      283.289651      299.542839      340.082636      334.799070      313.063260      297.998632      291.618313      287.932008      293.049358      297.813671      294.591613      283.816832      266.598018      251.377292      232.622468      199.756206      173.485654      150.598115      115.837369      107.012665       88.496632       39.207084      -10.000000      -10.000000      -10.000000      -10.000000      -10.000000      -10.000000      -10.000000       17.869802       38.267524       51.714283       46.700455       59.088440       59.889415       84.044021       81.489334       91.611852      100.169044      109.875752      113.770987       79.218490       70.182273       56.023625       46.463699       26.622129       43.166060       32.916527       15.984711       15.028013       12.192288       15.169907       18.847274       40.208126       47.966318       40.579488       38.826130       29.640378       26.605320       37.789798       49.411704       27.537683       24.025642       23.223187       32.719850       35.172623       48.795698       43.722716       25.474389       16.332372       18.784434       19.119215       33.280529       40.869759       29.284895       28.616198       38.015253       44.166587       40.487693       35.493620       39.328019       40.916892       30.279807       22.791477       35.034324       42.365101       47.362464       49.581693       47.760496       40.804182       38.363325       40.908883       40.024183       42.306180       41.416713       38.987349       38.606884       39.530340       44.492753       39.832680       36.091412       34.490058       32.600231       30.082765       28.263626       27.502390       24.435357       21.151319       19.486387       17.821797       15.739362       13.236725       10.848784        9.254018        5.000000        5.000000      -10.000000        5.000000        5.000000        8.785762       10.218548        9.708124      -10.000000      -10.000000      -10.000000        6.516059        6.626203        7.175997        8.036103        7.657300        8.360464        9.222471        9.357848        8.356490        6.333866      -10.000000      -10.000000      -10.000000      -10.000000      -10.000000      -10.000000      -10.000000      -10.000000      -10.000000      -10.000000      -10.000000      -10.000000      -10.000000      -10.000000      -10.000000      -10.000000      -10.000000      -10.000000      -10.000000      -10.000000      -10.000000      -10.000000      -10.000000      -10.000000      -10.000000      -10.000000      -10.000000      -10.000000      -10.000000      -10.000000      -10.000000
2154.556218     2068.518186     1999.341497     1972.817511     1928.938769     1933.622680     1918.590269     1854.760204     1802.784622     1755.201007     1672.726844     1546.251140     1336.437977     1043.872298      673.256021      426.578707      358.778447      325.977214      267.683783      210.101445      180.290135      195.999884      327.857124      264.014326      266.454850      282.144612      282.411997      280.379160      282.020046      280.987255      271.642503      253.270813      238.526579      220.029843      193.273141      155.930053      103.797090       87.339810       66.530330       34.635362      -10.000000      -10.000000      -10.000000      -10.000000      -10.000000      -10.000000      -10.000000      -10.000000      -10.000000      -10.000000      -10.000000       25.975757       37.117553       27.991552       10.416118       48.298758       67.694891       70.073107       63.518744       57.387088       58.984447       40.779931       36.284105       43.752343       49.527697       44.927450       36.465430       13.391510       14.084200       16.112202       21.744540       28.291192       36.897841       47.503676       47.590809       39.605582       29.182626       32.818678       35.544367       40.817533       43.700238       35.880602       27.940127       28.645793       29.817631       40.925168       42.881750       38.144771       24.552062       16.509568       26.063944       22.513603       19.902893       25.575545       32.049175       35.621253       38.523398       29.829919       27.738932       25.072804       36.398819       41.674110       41.633984       36.612076       40.360121       45.690218       45.563582       46.680078       45.936748       44.450847       41.238060       40.249966       39.848160       37.535498       33.092583       31.655933       36.012757       37.894980       39.833475       39.496168       36.587090       34.954220       34.335142       33.385669       32.999023       33.064611       27.574074       20.716855       18.666444       16.446685       14.197406       12.281972       10.916979        9.724370        6.848190        5.000000        5.000000        5.000000        5.267952        7.641746        8.888899        8.826342        5.000000      -10.000000      -10.000000        5.000000        5.000000        5.686583        6.912121        7.931483        8.963628       10.224760       11.050356       10.061754        8.265206      -10.000000      -10.000000      -10.000000      -10.000000      -10.000000      -10.000000      -10.000000      -10.000000      -10.000000      -10.000000      -10.000000      -10.000000      -10.000000      -10.000000      -10.000000      -10.000000      -10.000000      -10.000000      -10.000000      -10.000000      -10.000000      -10.000000      -10.000000      -10.000000      -10.000000      -10.000000      -10.000000      -10.000000      -10.000000      -10.000000      -10.000000
2097.036452     1996.752619     1853.659877     1821.329086     1801.760891     1778.961308     1781.019975     1751.755500     1666.106882     1616.307665     1515.218607     1419.488625     1224.477273      923.626692      575.535996      368.467278      322.384651      258.138810      147.849644      106.596525       99.028277      153.533383      188.666804       94.065296      139.620078      228.532117      264.190315      265.125690      260.945956      251.536762      241.546449      225.553803      215.875780      195.220450      143.576501      109.940997       77.583605       63.570992       41.561665       18.410706      -10.000000      -10.000000      -10.000000      -10.000000      -10.000000      -10.000000      -10.000000      -10.000000      -10.000000      -10.000000      -10.000000      -10.000000       19.306874       27.296181       19.132344       29.203027       45.321514       50.138991       48.191957       43.272455       35.733461       30.418668        7.621719       17.642251       51.502061       43.561065        5.000000       10.486036       33.742115       32.052213       35.495338       39.167204       49.566441       50.738455       47.028154       39.610446       38.963932       43.397737       44.471764       34.025073       23.718080       40.715249       43.631663       41.582812       43.686640       40.655488       38.532334       30.638093       22.801079       17.090315       29.236600       29.604318       26.866272       28.195572       36.215720       41.406937       42.383611       38.774782       32.872403       13.636447       29.572773       40.110351       37.920652       26.879233       32.907686       40.437609       42.074472       44.024755       44.799418       43.863704       41.838692       40.361488       37.260599       32.961978       24.175079       27.616049       35.208914       37.036065       39.118680       39.226425       37.781142       36.044510       35.414440       35.480213       35.843999       35.998941       32.355437       22.532195       18.570264       15.316714       12.541799       10.951429       10.399974        9.839462        7.993142        5.824263        5.000000        5.000000        5.943368        7.250138        8.097395        8.066191        6.385202      -10.000000      -10.000000      -10.000000        5.228642        5.000000        5.852156        7.010383        7.864519        9.103849        9.814043        7.845993        6.649638      -10.000000      -10.000000      -10.000000      -10.000000      -10.000000      -10.000000      -10.000000      -10.000000      -10.000000      -10.000000      -10.000000      -10.000000      -10.000000      -10.000000      -10.000000      -10.000000      -10.000000      -10.000000      -10.000000      -10.000000      -10.000000      -10.000000      -10.000000      -10.000000      -10.000000      -10.000000      -10.000000      -10.000000      -10.000000      -10.000000      -10.000000
2045.709577     1933.712312     1742.715277     1669.158630     1641.023443     1596.417015     1585.322880     1620.346222     1513.765932     1465.734232     1402.574508     1291.382126     1011.491859      797.005522      579.474735      333.793689      282.744214      196.648211       84.971678       74.440092       81.500231      102.443768       89.143158       84.357439      100.204492      134.471289      196.255702      222.976221      220.358654      208.444490      177.387677      129.233360      152.736758      151.770088       93.468281       77.933586       56.755622       38.689635        6.069024       16.967969      -10.000000      -10.000000      -10.000000      -10.000000      -10.000000      -10.000000      -10.000000      -10.000000      -10.000000      -10.000000      -10.000000      -10.000000      -10.000000       15.018402       20.379684       19.273617       31.955349       40.582826       41.746324       38.761356       25.508148       18.197912        5.000000        5.000000       50.232819       52.895656       14.637669       16.419099       46.372438       22.275683       20.070148       35.300682       47.832587       49.774083       48.170985       43.380121       43.699444       44.769785       37.870977       22.596737       34.203864       36.047902       42.095813       41.970745       39.711291       42.793105       38.763212       34.356805       26.517874       25.149826       26.720552       28.352585       29.914137       35.756167       42.787601       40.959465       38.206439       27.191046       30.361394       35.751751       30.579514       31.880376       30.661237       16.204628       22.933193       28.874916       33.795734       34.430353       41.033551       42.927249       41.418349       35.856506       30.235286       25.500697       22.079847       27.780602       35.343407       35.259553       38.361814       39.939347       39.428756       37.645268       36.791361       37.020035       37.091283       36.482442       34.009623       24.086195       18.581792       14.222359       10.517697        9.597933        9.804445        9.903767        8.822110        7.281786        6.202428        5.991263        6.446272        7.124920        7.636186        7.513683        6.158187        5.000000      -10.000000      -10.000000      -10.000000        5.000000        5.000000        5.330058        5.197000        5.000000      -10.000000      -10.000000      -10.000000      -10.000000      -10.000000      -10.000000      -10.000000      -10.000000      -10.000000      -10.000000      -10.000000      -10.000000      -10.000000      -10.000000      -10.000000      -10.000000      -10.000000      -10.000000      -10.000000      -10.000000      -10.000000      -10.000000      -10.000000      -10.000000      -10.000000      -10.000000      -10.000000      -10.000000      -10.000000      -10.000000      -10.000000      -10.000000      -10.000000      -10.000000
1967.311948     1825.960911     1629.290181     1511.721496     1436.081885     1424.283980     1397.877591     1454.923761     1350.158385     1294.102858     1203.491957     1044.290262      813.263688      493.175128      359.855913      296.954823      238.172113      137.343081       79.586850       70.524283       71.512988       70.961072       68.046433       68.835681       70.852176       72.035206       96.001178      100.416557      109.533371      131.645704      106.820213       85.532452       82.105893       81.976815       70.258388       60.954229       20.667146       10.407248        7.403878       13.698480        5.000000      -10.000000      -10.000000      -10.000000      -10.000000      -10.000000      -10.000000      -10.000000      -10.000000      -10.000000      -10.000000      -10.000000      -10.000000      -10.000000       17.334765       19.122223       19.703343       23.602961       35.188986       33.117576       25.636248       18.764181       12.862543       15.686069       45.566281       53.636454       45.111843       45.402788       39.528516       39.536424       42.344583       34.969731       22.956222       30.386911       20.595528       29.642313       12.191454        9.493103       20.211319       22.287718       30.452362       41.815110       47.493074       37.060925       38.605364       37.593766       26.562356       22.302497       18.184509        5.000000        6.451162        8.002979       22.669125       26.215892       32.042998       27.265515        7.394819        7.276870       15.070329       27.626132       24.837147       11.539486       12.156355        7.299814       25.674794       30.512078       33.236609       32.532919       32.641311       36.851613       37.120004       29.237287       22.082293       21.035941       10.682885       25.601157       32.210283       32.732413       30.847783       36.820345       37.741664       37.410082       37.226927       37.516837       35.815205       33.185661       27.639422       22.417176       17.645731       13.213002        6.758778        7.905047        9.442370       10.117793        9.568106        8.279105        7.103075        6.542124        6.582449        6.959951        7.275217        7.195416        6.697657        5.870287        5.105823      -10.000000      -10.000000      -10.000000      -10.000000      -10.000000      -10.000000      -10.000000      -10.000000      -10.000000      -10.000000      -10.000000      -10.000000      -10.000000      -10.000000      -10.000000      -10.000000      -10.000000      -10.000000      -10.000000      -10.000000      -10.000000      -10.000000      -10.000000      -10.000000      -10.000000      -10.000000      -10.000000      -10.000000      -10.000000      -10.000000      -10.000000      -10.000000      -10.000000      -10.000000      -10.000000      -10.000000      -10.000000      -10.000000      -10.000000      -10.000000      -10.000000
1819.669901     1657.142316     1465.650783     1353.159479     1239.577094     1242.997614     1213.311721     1247.306285     1193.422964     1107.255838      961.938902      788.454367      513.410150      353.580894      275.963299      229.862883      164.393278      100.620538       76.431727       70.561567       68.614670       64.414964       61.437855       60.116703       60.039549       60.998243       65.549553       65.135125       67.939928       69.473972       72.749339       70.240374       60.946084       64.491549       56.339869       43.719636        5.000000        5.000000       14.801826       15.876690        9.216992        5.000000      -10.000000      -10.000000      -10.000000      -10.000000      -10.000000      -10.000000      -10.000000      -10.000000      -10.000000      -10.000000      -10.000000      -10.000000      -10.000000       17.462436       20.209944       26.510611       30.615349       29.210955       21.602482       25.410546       30.885047       36.425006       51.591969       43.445713       20.116233       25.470769       27.087825      -10.000000        5.000000       17.759079        5.172332       12.532107      -10.000000      -10.000000      -10.000000      -10.000000       11.873056       22.435635       22.136658       26.936376       29.136744       22.118319       10.961570      -10.000000      -10.000000      -10.000000      -10.000000      -10.000000      -10.000000      -10.000000      -10.000000        5.000000       14.252023        8.742809      -10.000000      -10.000000      -10.000000      -10.000000      -10.000000      -10.000000      -10.000000        5.000000       18.446636       12.165297       22.394271       14.207432       22.778252       26.027913       26.243120       23.174622       20.632501       18.697490        5.000000        7.351390       29.222462       30.284534       26.605695       25.968188       28.345308       31.262925       33.411169       26.127307       23.228793       16.939863       18.300082       19.680479       16.779456        6.119808        5.000000        5.784194       10.659945       11.202990       10.132787        9.064023        7.403517        6.358948        6.142642        6.534621        6.751228        6.840286        6.953487        7.169268        7.074632        5.000000      -10.000000      -10.000000      -10.000000      -10.000000      -10.000000      -10.000000      -10.000000      -10.000000      -10.000000      -10.000000      -10.000000      -10.000000      -10.000000      -10.000000      -10.000000      -10.000000      -10.000000      -10.000000      -10.000000      -10.000000      -10.000000      -10.000000      -10.000000      -10.000000      -10.000000      -10.000000      -10.000000      -10.000000      -10.000000      -10.000000      -10.000000      -10.000000      -10.000000      -10.000000      -10.000000      -10.000000      -10.000000      -10.000000      -10.000000      -10.000000
1564.405413     1448.303297     1281.359056     1141.647308     1022.076180      995.381800      987.926875      948.729646      981.207866      877.220859      738.221583      579.339668      354.736982      264.015099      183.166583      141.117139       97.566206       79.632287       72.250240       68.760211       65.794414       61.819408       60.026936       59.529758       59.829636       58.031430       54.650538       55.238756       56.965088       52.120143       54.481523       54.473133       50.380017       54.013542       47.240467       40.484305       34.322134       15.322615       21.109658       16.744430        6.697253        5.000000      -10.000000      -10.000000      -10.000000      -10.000000      -10.000000      -10.000000      -10.000000      -10.000000      -10.000000      -10.000000      -10.000000      -10.000000      -10.000000       11.642772       19.503679       26.430170       27.526758       22.307782        7.777456       20.067062       30.799871       40.486868       50.850626       35.429162        5.000000        5.000000      -10.000000      -10.000000      -10.000000      -10.000000      -10.000000      -10.000000      -10.000000      -10.000000      -10.000000      -10.000000      -10.000000        5.000000        5.000000      -10.000000      -10.000000      -10.000000      -10.000000      -10.000000      -10.000000      -10.000000      -10.000000      -10.000000      -10.000000      -10.000000      -10.000000      -10.000000      -10.000000      -10.000000      -10.000000      -10.000000      -10.000000      -10.000000      -10.000000      -10.000000      -10.000000        8.101555        5.000000        5.000000        5.000000        5.000000       19.676116       20.829450       22.150041       21.382374        5.000000        5.000000       11.381074       10.849598       29.000424       29.272723       26.281156       25.572817       27.226497       26.727956       15.515838      -10.000000      -10.000000        5.000000        8.165222       17.197235       17.011177        5.830568        5.000000        8.696547       11.606198       12.676596       11.155197        9.350808        6.977893        5.442672        5.000000        5.000000        5.710618        5.696379        6.293493        7.082322        7.180287        6.096324        5.265701        5.000000      -10.000000      -10.000000      -10.000000      -10.000000      -10.000000      -10.000000      -10.000000      -10.000000      -10.000000      -10.000000      -10.000000      -10.000000      -10.000000      -10.000000      -10.000000      -10.000000      -10.000000      -10.000000      -10.000000      -10.000000      -10.000000      -10.000000      -10.000000      -10.000000      -10.000000      -10.000000      -10.000000      -10.000000      -10.000000      -10.000000      -10.000000      -10.000000      -10.000000      -10.000000      -10.000000      -10.000000      -10.000000      -10.000000
1255.173977     1148.689354     1088.220713      864.688846      778.038478      687.331239      699.712973      654.707887      699.562975      625.564579      556.790776      369.897444      185.725283      164.034767      110.940494       78.452726       72.981087       70.434038       69.061413       65.970950       61.973439       60.042001       59.755729       59.746869       59.848736       48.395116       50.406523       48.537070       42.250621       42.075155       44.755151       44.796301       42.974594       44.924390       42.765978       38.351705       35.518207       30.000113       21.811941        7.693533      -10.000000      -10.000000      -10.000000      -10.000000      -10.000000      -10.000000      -10.000000      -10.000000      -10.000000      -10.000000      -10.000000      -10.000000      -10.000000      -10.000000      -10.000000        9.164968       14.297688       21.722153       17.749794        8.902887      -10.000000        9.130901       23.765748       29.941213       55.836309       63.141901       31.002692       10.638692      -10.000000      -10.000000      -10.000000      -10.000000      -10.000000      -10.000000      -10.000000      -10.000000      -10.000000      -10.000000      -10.000000      -10.000000      -10.000000      -10.000000      -10.000000      -10.000000      -10.000000      -10.000000      -10.000000      -10.000000      -10.000000      -10.000000      -10.000000      -10.000000      -10.000000      -10.000000      -10.000000      -10.000000      -10.000000      -10.000000      -10.000000      -10.000000      -10.000000      -10.000000      -10.000000      -10.000000      -10.000000      -10.000000       11.501124       17.941596       19.079127       20.191838       22.886747       25.426924       14.463422        5.000000       20.481393       24.988527       28.110831       26.838607       25.378484       18.909083       17.569524      -10.000000      -10.000000      -10.000000      -10.000000      -10.000000        5.000000       14.513876       16.193256       12.300194        5.000000      -10.000000      -10.000000        5.000000        9.962954        8.873105        5.988726        5.000000      -10.000000      -10.000000        5.000000        5.000000        5.000000        6.322909        7.314794        7.315264        6.896941        6.420557        5.645889        5.000000      -10.000000      -10.000000      -10.000000      -10.000000      -10.000000      -10.000000      -10.000000      -10.000000      -10.000000      -10.000000      -10.000000      -10.000000      -10.000000      -10.000000      -10.000000      -10.000000      -10.000000      -10.000000      -10.000000      -10.000000      -10.000000      -10.000000      -10.000000      -10.000000      -10.000000      -10.000000      -10.000000      -10.000000      -10.000000      -10.000000      -10.000000      -10.000000      -10.000000      -10.000000      -10.000000      -10.000000
928.752330      824.095576      797.621571      639.664090      500.611881      432.138446      393.402141      372.042782      422.199031      323.796684      302.899707      230.910918      147.745790      107.392193       75.441897       63.288642       64.686725       65.511298       65.429020       63.180296       60.364941       59.769515       59.570773       58.636709       54.956537       48.534695       46.636097       40.811892       34.780203       37.563618       40.665040       40.309039       39.407882       40.241709       35.515804       31.621947       26.995389       25.219626      -10.000000      -10.000000      -10.000000      -10.000000      -10.000000      -10.000000      -10.000000      -10.000000      -10.000000      -10.000000      -10.000000      -10.000000      -10.000000      -10.000000      -10.000000      -10.000000      -10.000000      -10.000000      -10.000000      -10.000000      -10.000000      -10.000000      -10.000000        6.813651       10.583841       19.894504       37.380201       59.867886       53.701548       48.592933      -10.000000      -10.000000      -10.000000      -10.000000      -10.000000      -10.000000      -10.000000      -10.000000      -10.000000      -10.000000      -10.000000      -10.000000      -10.000000      -10.000000      -10.000000      -10.000000      -10.000000      -10.000000      -10.000000      -10.000000      -10.000000      -10.000000      -10.000000      -10.000000      -10.000000      -10.000000      -10.000000      -10.000000      -10.000000      -10.000000      -10.000000      -10.000000      -10.000000      -10.000000      -10.000000      -10.000000      -10.000000      -10.000000      -10.000000       13.749423       19.272166       19.903618       21.459144       19.147640       20.764131       23.111646       23.472227       25.461099       25.855146       25.609016       13.434968      -10.000000      -10.000000      -10.000000      -10.000000      -10.000000      -10.000000      -10.000000        5.000000        5.000000       10.053854       10.921247        8.764028      -10.000000      -10.000000      -10.000000        5.000000        8.036498        5.194369      -10.000000      -10.000000      -10.000000      -10.000000      -10.000000      -10.000000        5.000000        6.536119        7.154012        5.000000        5.000000        5.000000        6.664442        5.000000      -10.000000      -10.000000      -10.000000      -10.000000      -10.000000      -10.000000      -10.000000      -10.000000      -10.000000      -10.000000      -10.000000      -10.000000      -10.000000      -10.000000      -10.000000      -10.000000      -10.000000      -10.000000      -10.000000      -10.000000      -10.000000      -10.000000      -10.000000      -10.000000      -10.000000      -10.000000      -10.000000      -10.000000      -10.000000      -10.000000      -10.000000      -10.000000      -10.000000      -10.000000      -10.000000
569.019357      487.547874      369.898347      341.897172      254.323192      238.955782      176.287066      178.869950      230.257177      174.498936      158.845473      137.819128       94.622573       72.294543       61.798226       58.145460       57.587884       57.133035       61.706648       61.079502       60.199752       59.639137       58.061305       54.503558       50.603856       48.548193       40.359052       31.930913       29.267077       31.773706       34.858684       35.009539       35.989925       36.855595       30.981231       23.017694        5.848984       16.212785      -10.000000      -10.000000      -10.000000      -10.000000      -10.000000      -10.000000      -10.000000      -10.000000      -10.000000      -10.000000      -10.000000      -10.000000      -10.000000      -10.000000      -10.000000      -10.000000      -10.000000      -10.000000      -10.000000      -10.000000      -10.000000      -10.000000      -10.000000      -10.000000      -10.000000      -10.000000       10.946482       22.472223       32.105963      -10.000000      -10.000000      -10.000000      -10.000000      -10.000000      -10.000000      -10.000000      -10.000000      -10.000000      -10.000000      -10.000000      -10.000000      -10.000000      -10.000000      -10.000000      -10.000000      -10.000000      -10.000000      -10.000000      -10.000000      -10.000000      -10.000000      -10.000000      -10.000000      -10.000000      -10.000000      -10.000000      -10.000000      -10.000000      -10.000000      -10.000000      -10.000000      -10.000000      -10.000000      -10.000000      -10.000000      -10.000000      -10.000000      -10.000000        5.000000        8.792615       20.214187       18.278207       20.025197        5.870375        5.169816       24.633206       24.911300       25.078576       25.083745       12.598894      -10.000000      -10.000000      -10.000000      -10.000000      -10.000000      -10.000000      -10.000000      -10.000000      -10.000000      -10.000000        5.000000        8.728930       10.535523        5.000000      -10.000000      -10.000000        5.554652        7.877162        5.196946      -10.000000      -10.000000      -10.000000      -10.000000      -10.000000      -10.000000      -10.000000      -10.000000      -10.000000      -10.000000      -10.000000        5.000000        6.229103        5.914382      -10.000000      -10.000000      -10.000000      -10.000000      -10.000000      -10.000000      -10.000000      -10.000000      -10.000000      -10.000000      -10.000000      -10.000000      -10.000000      -10.000000      -10.000000      -10.000000      -10.000000      -10.000000      -10.000000      -10.000000      -10.000000      -10.000000      -10.000000      -10.000000      -10.000000      -10.000000      -10.000000      -10.000000      -10.000000      -10.000000      -10.000000      -10.000000      -10.000000      -10.000000      -10.000000
